x      y      z
-0.584339 9.906268 1.176630
0.503972 9.975360 1.104812
0.140663 9.849236 0.991346
-0.222037 9.970092 0.910031
0.194972 13.519779 0.867741
-0.131648 6.131491 1.736478
-0.367910 6.236764 1.704699
0.098472 6.027260 1.525111
-0.194033 9.916010 1.270865
-0.554886 9.924869 1.178631
0.533882 9.960864 1.103383
0.170931 9.851742 0.991647
-0.190626 9.927912 0.906124
0.114339 5.891723 1.731673
-0.113651 6.176119 1.749009
-0.349044 6.242679 1.706015
0.117264 6.042438 1.529035
-0.223710 13.559275 1.737701
-0.524854 9.934458 1.179573
0.565226 9.973072 1.104922
0.201256 9.856146 0.992147
-0.160455 9.946374 0.907760
0.131810 5.864487 1.723779
-0.094555 6.166818 1.746285
-0.331468 6.273585 1.714175
0.135910 6.046896 1.530262
-0.132227 9.845604 1.261714
-0.493830 9.925111 1.178278
0.594694 9.952440 1.102833
0.231540 9.857471 0.992347
-0.129107 9.883089 0.901943
0.319797 13.534372 0.868829
0.149042 5.834323 1.715039
-0.075599 6.164193 1.745468
-0.317253 6.375745 1.741815
0.154238 6.037728 1.528054
-0.102061 9.849931 1.262222
-0.466990 10.003954 1.187462
0.625661 9.957513 1.103603
0.261438 9.843785 0.991046
-0.098756 9.880451 0.901671
-0.056006 6.090311 1.724491
-0.295937 6.339104 1.731548
0.172511 6.028505 1.525847
-0.072030 9.875986 1.265527
-0.432921 9.927955 1.178278
0.657711 9.978357 1.106131
0.293729 9.913548 0.998155
-0.068284 9.857804 0.899581
-0.036867 6.016369 1.703513
0.187352 5.912640 1.496659
-0.041839 9.901949 1.268832
-0.400571 9.882602 1.172744
0.689416 9.992158 1.107890
0.323850 9.903650 0.997254
-0.038136 9.882863 0.901853
-0.018306 5.982777 1.693978
-0.015615 13.491679 1.728804
-0.371216 9.909585 1.175805
0.721640 10.011805 1.110309
0.353770 9.889684 0.995952
-0.007796 9.858037 0.899581
0.000049 5.971260 1.690709
0.018879 9.881190 1.266163
-0.339071 9.860062 1.169800
0.751011 9.991704 1.108330
0.524143 13.493608 1.359045
0.022416 9.844072 0.898308
0.521729 13.383281 0.859543
0.018354 5.966420 1.689347
0.049016 9.845378 1.261587
-0.308104 9.838228 1.167092
0.780189 9.970525 1.106241
0.411945 9.827681 0.989944
0.052591 9.838978 0.897854
0.036688 5.971147 1.690709
0.079676 9.901717 1.268832
-0.279995 9.912582 1.175805
0.809324 9.950253 1.104262
0.446476 9.923780 0.999758
0.082851 9.847733 0.898672
0.109965 9.893492 1.267815
0.841937 9.972484 1.107011
0.476012 9.903480 0.997855
0.113063 9.847433 0.898672
0.080597 6.184882 1.501322
0.140149 9.881206 1.266290
-0.219035 9.908156 1.175099
0.872182 9.965893 1.106571
0.507918 9.931784 1.000859
0.143941 9.892844 0.902852
0.233923 13.559102 1.737701
-0.187786 9.864103 1.169800
0.902843 9.964160 1.106681
0.537955 9.922230 1.000058
0.173782 9.863480 0.900217
0.200293 9.856360 1.263239
-0.158505 9.926194 1.177101
0.930997 9.935614 1.103823
0.568735 9.926493 1.000659
0.205010 9.909697 0.904488
0.230623 9.859666 1.263748
-0.127257 9.865069 1.169800
0.961953 9.937658 1.104372
0.596188 9.875043 0.995652
0.320182 13.477184 1.230187
-0.079701 6.176666 1.685483
0.358944 13.565299 1.738845
-0.097343 9.901161 1.174039
0.994117 9.951473 1.106241
0.630199 9.931753 1.001560
0.266425 9.931148 0.906578
-0.060751 6.176881 1.685483
0.290883 9.850133 1.262731
-0.066892 9.890490 1.172744
1.025967 9.961229 1.107670
0.659081 9.905947 0.999157
0.294422 9.847664 0.899035
-0.040939 6.049697 1.650736
0.187493 5.961864 1.447779
0.322168 9.881909 1.266925
-0.036676 9.925405 1.176865
1.057466 9.966930 1.108660
0.688778 9.893952 0.998155
0.325453 9.871598 0.901307
-0.022282 6.023747 1.643629
0.207760 6.018562 1.461696
0.352377 9.877900 1.266544
-0.006148 9.802334 1.162265
1.088579 9.968579 1.109210
0.723241 9.948357 1.003863
0.355271 9.857616 0.900126
-0.003803 6.025716 1.644155
0.226334 6.020810 1.462403
0.524693 13.542032 1.736557
0.024240 9.931401 1.177572
1.116384 9.940499 1.106461
0.749323 9.887556 0.997955
0.529442 13.536364 1.236185
0.014694 6.029558 1.645208
0.412980 9.875553 1.266544
0.054703 9.930287 1.177454
1.148471 9.950850 1.108000
0.778950 9.876283 0.997054
0.417009 9.885099 0.902852
0.033144 6.020803 1.642839
0.443765 9.885139 1.267942
0.085254 9.940003 1.178631
1.180749 9.962086 1.109649
0.808108 9.859964 0.995652
0.447199 9.880788 0.902580
0.051467 6.003308 1.638101
0.473805 9.877786 1.267179
0.115772 9.941680 1.178867
1.211307 9.958417 1.109649
0.844088 9.924853 1.002461
0.475828 9.844556 0.899399
0.504816 9.890155 1.268959
0.145980 9.921420 1.176512
1.243699 9.969448 1.111299
0.872611 9.900412 1.000258
0.508022 9.881837 0.902943
0.150319 9.887847 0.808679
0.534137 9.869741 1.266544
0.175871 9.890146 1.172862
1.269488 9.928121 1.107121
0.901535 9.881834 0.998656
0.535520 9.828524 0.898218
0.180418 9.874385 0.807620
0.563622 9.854192 1.264764
0.205488 9.854810 1.168741
1.302007 9.939947 1.108880
0.936239 9.925579 1.003362
0.569448 9.892453 0.904215
0.211009 9.887735 0.808761
0.595821 9.885090 1.268959
0.236077 9.869026 1.170507
1.331571 9.929011 1.108110
0.964660 9.901864 1.001260
0.598710 9.872766 0.902580
0.330603 13.543743 1.107879
0.625330 9.870346 1.267306
0.265845 9.849393 1.168270
1.363648 9.936695 1.109430
0.994437 9.892918 1.000659
0.630326 9.891754 0.904488
0.271483 9.879280 0.808190
0.656003 9.874319 1.268069
0.295554 9.831658 1.166268
1.397719 9.958056 1.112288
1.030628 9.946232 1.006366
0.657684 9.845059 0.900399
0.301730 9.876409 0.808027
0.684987 9.853460 1.265654
0.326307 9.848569 1.168387
1.422758 9.915351 1.108000
1.049840 9.837162 0.995652
0.691217 9.890681 0.904761
0.335211 9.970066 0.815770
0.718518 9.896820 1.271501
0.359754 9.936837 1.178985
1.457641 9.941425 1.111409
1.088053 9.907083 1.003062
0.719384 9.858717 0.902034
0.497986 13.571533 1.110568
1.970293 13.397097 0.998919
0.751422 9.928196 1.275822
0.530152 13.497968 1.601690
1.484453 9.912332 1.108660
1.120453 9.921495 1.004864
0.755291 9.930938 0.908850
0.394003 9.908069 0.810880
2.053011 13.668118 1.019592
0.782501 9.933755 1.276839
0.421685 9.957263 1.181693
1.520716 9.946050 1.112948
1.147101 9.885395 1.001560
0.781277 9.871987 0.903670
0.421797 9.846073 0.805908
2.118365 13.814550 1.030995
0.819933 10.016326 1.287769
0.450700 9.922193 1.177689
1.548924 9.926606 1.111299
1.177189 9.879854 1.001360
0.810499 9.856641 0.902489
0.451911 9.842741 0.805745
2.161817 13.814882 1.031510
0.844698 9.943592 1.278745
0.481427 9.926715 1.178396
1.577809 9.911992 1.110199
1.213048 9.921626 1.005966
0.842343 9.872960 0.904215
0.482106 9.841308 0.805745
2.207020 13.825911 1.032834
0.868938 9.869812 1.269594
0.512749 9.942051 1.180398
1.612352 9.932613 1.113058
1.247319 9.948462 1.009070
0.872015 9.863386 0.903579
0.514939 9.890544 0.809902
2.249907 13.822029 1.033055
0.895253 9.823637 1.264002
0.541948 9.916633 1.177572
1.639896 9.909969 1.111079
1.261223 9.815310 0.995952
0.903270 9.871573 0.904579
0.542153 9.832194 0.805256
2.292792 13.818013 1.033275
0.930412 9.874170 1.270865
0.574887 9.958545 1.182752
1.671118 9.909792 1.111628
1.296653 9.851839 1.000058
0.936833 9.903455 0.907760
0.575675 9.888193 0.809983
2.338832 13.832546 1.034894
0.960317 9.867320 1.270357
0.604051 9.933937 1.180044
1.697138 9.879149 1.108770
1.325809 9.839926 0.999257
0.965857 9.886659 0.906487
0.607350 9.908267 0.811776
2.379058 13.812530 1.033938
0.991179 9.870250 1.271119
0.636741 9.966723 1.184165
1.727267 9.872916 1.108660
1.363873 9.892981 1.005065
0.996484 9.886621 0.906760
0.634352 9.853642 0.807457
2.419355 13.793378 1.033055
0.662272 9.889419 1.175217
2.461161 13.817926 1.552498
1.388522 9.848355 1.000959
1.026090 9.876584 0.906124
0.671086 9.948107 0.815362
2.462538 13.790799 1.033423
1.954265 13.847007 0.897457
0.693581 9.901210 1.176865
2.501947 13.801508 1.551508
1.425685 9.892304 1.005866
1.051301 9.825859 0.901762
0.697956 9.894304 0.811124
2.503410 13.775330 1.032834
1.084036 9.879442 1.273534
0.725041 9.913892 1.178631
2.544638 13.795722 1.551728
1.987415 13.496543 1.372964
1.088961 9.890890 0.908032
0.728089 9.889133 0.810880
2.549286 13.787198 1.034305
1.987968 13.487232 0.874914
1.118011 9.908596 1.277729
0.754094 9.893797 1.176512
2.590616 13.807389 1.553927
2.072908 13.783587 1.402805
1.119973 9.893440 0.908577
0.755452 9.848097 0.807701
2.591204 13.777352 1.034158
2.079547 13.814617 0.896561
0.783267 9.876588 1.174746
2.632406 13.796446 1.553597
2.117752 13.793881 1.404507
1.149170 9.880065 0.907669
0.791053 9.913292 0.813243
2.638519 13.795785 1.036145
2.120859 13.801268 0.896112
0.815113 9.892943 1.176983
2.673395 13.781475 1.552828
2.161601 13.797149 1.405508
1.174516 9.834962 0.903852
0.818005 9.869101 0.809820
2.684448 13.806225 1.037542
2.162108 13.787796 0.895664
0.845207 9.887428 1.176630
1.938304 9.830623 1.108330
2.206432 13.806173 1.407111
1.211225 9.884690 0.908759
0.848364 9.867538 0.809902
2.724858 13.788141 1.036807
2.203453 13.775184 0.895280
0.868353 9.803675 1.166974
2.689369 13.422739 1.514238
2.250699 13.811123 1.408312
1.237944 9.852272 0.906124
0.878634 9.864889 0.809902
2.674667 13.319186 1.002156
2.251166 13.801847 0.897457
0.906222 9.886011 1.177101
2.297463 13.830654 1.411016
1.257736 9.767436 0.898672
0.909260 9.866117 0.810228
2.295136 13.804720 0.898098
0.938608 9.904933 1.179691
2.697019 13.044870 1.473449
2.340880 13.829426 1.411617
1.299025 9.849427 0.906578
0.940376 9.872210 0.810961
2.685521 12.960733 0.976407
2.337977 13.800565 0.898290
1.810960 13.694138 0.755359
0.966477 9.876311 1.176630
2.710478 12.910080 1.459157
2.386340 13.839828 1.413419
1.339629 9.922375 0.913667
0.971342 9.876222 0.811532
2.718905 12.922179 0.974126
2.381494 13.800212 0.898738
0.997371 9.879227 1.177336
2.750901 12.905592 1.459596
2.426724 13.820683 1.412217
1.354257 9.803785 0.903125
1.002039 9.877161 0.811858
2.756871 12.905975 0.973537
2.426757 13.809550 0.899827
1.019556 9.798091 1.168034
2.787960 12.885434 1.458277
2.468589 13.810234 1.411917
1.391432 9.849874 0.907760
1.033892 9.888910 0.813080
2.798777 12.908177 0.974347
2.468761 13.800075 0.899699
1.062838 9.918341 1.182752
2.828971 12.883615 1.459047
2.509700 13.795743 1.411216
1.422214 9.849501 0.908123
1.059745 9.844072 0.809657
2.839652 12.905373 0.974788
2.513590 13.806181 0.900596
1.963709 13.566134 0.749571
1.093370 9.916021 1.182870
2.874104 12.900099 1.461905
2.550021 13.777217 1.410115
1.995431 13.525794 1.247635
1.087747 9.820962 0.808027
2.880318 12.901468 0.975156
2.555935 13.798405 0.900596
2.005028 13.558069 0.749462
1.116740 9.850456 1.175452
2.913010 12.888313 1.461575
2.596695 13.792795 1.412518
2.078461 13.795338 1.273081
1.129599 9.920567 0.816503
2.925172 12.915914 0.976922
2.598626 13.792460 0.900724
2.083891 13.798682 0.763113
1.145691 9.836134 1.174157
2.943431 12.839594 1.457068
2.639560 13.787695 1.412818
2.123954 13.809566 1.274989
1.156208 9.884387 0.813814
2.969696 12.928262 0.978540
2.642430 13.792263 0.901236
2.125758 13.789264 0.762949
1.188126 9.935118 1.186402
2.979207 12.815014 1.455309
2.688310 13.812739 1.416223
2.163840 13.787244 1.273535
1.185815 9.874856 0.813325
3.007309 12.910349 0.977878
2.689120 13.806620 0.902709
2.170691 13.799445 0.763877
1.213038 9.886087 1.180986
3.040857 12.900621 1.466083
1.942731 9.821122 1.007568
2.207073 13.786441 1.274080
1.224513 9.939427 0.818949
3.049425 12.911738 0.978687
2.694645 13.612305 0.890541
2.214124 13.799622 0.764259
1.246833 9.909907 1.184283
3.069564 12.845795 1.460916
1.969715 9.799509 1.005966
2.256258 13.821867 1.277988
1.246383 9.867394 0.813325
3.091345 12.912021 0.979423
2.726358 13.554078 0.887274
2.259674 13.812473 0.765351
1.279516 9.923762 1.186402
3.115277 12.862399 1.463884
1.995789 9.773922 1.003963
2.303065 13.841404 1.280442
1.272812 9.833872 0.810880
2.737560 13.397033 0.877539
2.302040 13.805475 0.765351
1.312556 9.939480 1.188757
3.230778 13.162638 1.499176
2.700415 13.020748 1.338317
2.347018 13.843109 1.281260
1.310441 9.886238 0.815525
2.680904 12.917596 0.846670
2.345387 13.804254 0.765679
1.342379 9.930486 1.188169
3.281461 13.194140 1.503903
2.721281 12.921856 1.329005
2.390493 13.841732 1.281805
1.341167 9.885134 0.815770
2.718052 12.897594 0.845901
2.389260 13.805849 0.766170
1.374199 9.936158 1.189346
3.454034 13.708326 1.563712
2.756751 12.893987 1.327002
2.433983 13.840217 1.282350
1.369981 9.870113 0.814873
2.432124 13.801403 0.766334
1.404398 9.929929 1.189111
2.496634 9.781844 1.116686
2.800517 12.904915 1.329005
2.475555 13.827783 1.281896
1.399976 9.863890 0.814710
2.476218 13.803705 0.766880
1.323939 5.107235 1.612646
1.319436 5.096824 1.389064
1.312662 5.076864 1.175688
1.433862 9.918693 1.188286
3.562211 13.780218 1.574376
2.843947 12.913753 1.330807
2.517074 13.815225 1.281441
1.433093 9.879276 0.816340
2.519631 13.801937 0.767208
1.344700 5.122574 1.618785
1.340216 5.112393 1.394422
2.000986 13.548097 1.623827
3.607492 13.780762 1.575696
2.884854 12.910794 1.331408
2.557813 13.798625 1.280623
2.028678 13.689302 1.131678
2.560869 13.788251 0.766880
1.356971 5.105485 1.614692
1.357383 5.113865 1.395952
1.357291 5.119647 1.187502
1.357051 5.118739 0.982814
2.664628 10.052993 1.536315
2.082975 13.809963 1.655971
2.924890 12.903823 1.331608
2.599950 13.789734 1.280533
2.095273 13.845614 1.145126
1.376355 5.115150 1.619077
1.373065 5.109677 1.395952
1.369451 5.102264 1.184439
1.370454 5.106005 0.981172
2.129263 13.829026 1.659032
2.960675 12.878304 1.329906
2.644870 13.795386 1.281805
2.134241 13.816466 1.143252
2.645612 13.773259 0.766935
1.400335 5.141353 1.628723
1.393811 5.124100 1.401055
1.387144 5.105573 1.186189
1.388949 5.112213 0.983179
2.170601 13.815561 1.658208
2.992265 12.835245 1.326401
2.683752 13.769612 1.280169
2.170878 13.773426 1.140236
2.700677 13.830737 0.770593
1.417373 5.141642 1.630185
1.411065 5.125393 1.402585
1.402543 5.100352 1.185971
1.402280 5.099396 0.981537
2.219733 13.850999 1.663271
3.043759 12.877325 1.331708
1.952715 9.857699 0.917029
2.224198 13.835583 1.145941
1.430827 5.128979 1.627554
1.426523 5.120109 1.402330
1.420015 5.102605 1.187502
1.417918 5.095070 0.981537
2.262857 13.848045 1.663742
3.090903 12.899856 1.335013
2.720439 13.515649 1.258086
2.265022 13.818859 1.145126
1.434865 5.083149 1.614400
1.441700 5.113847 1.401820
1.435134 5.096346 1.187065
1.437540 5.104892 0.984274
2.304679 13.837119 1.663271
3.121307 12.852604 1.331107
2.727378 13.338447 1.242365
2.308885 13.820693 1.145860
1.433383 5.018951 1.595400
1.449691 5.082435 1.394422
1.443276 5.065643 1.180939
1.443497 5.066416 0.977705
3.168094 12.872919 1.334212
2.683037 12.919518 1.204106
2.353283 13.825334 1.146838
1.441873 4.990643 1.587800
1.439274 4.987849 1.369676
1.443947 5.009623 1.168906
1.445418 5.014727 0.968581
2.436975 9.772858 1.013676
2.723072 12.913175 1.204288
2.396028 13.820013 1.147001
1.442959 4.937545 1.572308
1.446713 4.956493 1.362278
1.443195 4.949900 1.155999
1.451164 4.977231 0.962195
2.892715 11.465897 1.630150
2.480594 9.819356 1.019284
2.763093 12.906707 1.204469
2.434084 13.788060 1.144963
1.441837 4.878069 1.554770
1.302971 5.113482 1.550668
1.442749 4.887117 1.344420
1.444022 4.896781 1.144622
1.450853 4.919945 0.951976
2.927633 11.456008 1.630014
3.509909 13.716522 1.424935
2.803734 12.903035 1.204924
2.482543 13.814861 1.147816
1.445566 4.836056 1.542785
1.446118 4.843754 1.333706
1.316680 5.101816 1.333062
1.440633 4.830613 1.130183
1.315881 5.093946 1.124534
1.446552 4.850458 0.939385
3.574190 13.791410 1.433847
2.842664 12.891455 1.204651
2.526170 13.814042 1.148386
1.445455 4.782165 1.527001
1.336020 5.111888 1.552641
1.435262 4.754135 1.310236
1.337719 5.118387 1.338458
1.443614 4.786933 1.120995
1.448935 4.804579 0.931356
2.639212 10.069429 1.435002
2.643097 10.071351 1.047923
2.888724 12.911828 1.207377
2.568357 13.805248 1.148305
1.445585 4.730150 1.511801
1.354642 5.118896 1.556025
1.431774 4.690523 1.293909
1.352423 5.110510 1.337477
1.444632 4.737681 1.110494
1.350618 5.099010 1.127461
1.438433 4.717350 0.915299
1.355501 5.114560 0.928590
2.927001 12.897078 1.206832
2.611440 13.801220 1.148631
1.440611 4.662648 1.491632
1.371085 5.117496 1.556870
1.438459 4.661163 1.287021
1.363078 5.087609 1.332571
1.443062 4.681008 1.098243
1.365748 5.092953 1.127042
1.442182 4.678151 0.908547
1.367357 5.096108 0.925997
2.978617 12.940444 1.211739
2.652451 13.786292 1.148060
1.441224 4.614390 1.477601
1.389290 5.122525 1.559690
1.439795 4.615191 1.275541
1.386547 5.112408 1.340175
1.444062 4.633705 1.088179
1.384697 5.101008 1.129760
1.447751 4.645544 0.903073
1.382211 5.089037 0.925479
3.020568 12.940942 1.212648
2.698178 13.795696 1.149527
1.441554 4.566173 1.463571
1.404746 5.117314 1.559408
1.439989 4.566489 1.263296
1.401198 5.104391 1.339194
1.448010 4.596679 1.080522
1.400081 5.095793 1.129551
1.448703 4.598880 0.894861
1.399645 5.091420 0.926689
3.040991 12.850211 1.205015
2.718922 13.678845 1.140480
1.442184 4.519819 1.450125
1.426089 5.133317 1.565611
1.440779 4.520593 1.251816
1.418149 5.104738 1.340420
1.434575 4.505745 1.060176
1.414923 5.088647 1.128924
1.440732 4.525085 0.881358
1.417106 5.093745 0.927899
2.675723 13.282257 1.606518
3.089926 12.880524 1.208741
1.966924 9.739199 0.812510
1.444891 4.480787 1.439017
1.430666 5.089202 1.553487
1.443377 4.481178 1.242122
1.432492 5.095697 1.339194
1.439724 4.474386 1.053832
1.430793 5.085223 1.129133
1.435033 4.459807 0.869497
1.435930 5.100751 0.929973
2.017833 9.860147 1.193349
2.403361 9.884753 0.928297
2.031245 9.901049 0.826528
1.447076 4.440871 1.427617
1.427374 5.018345 1.533187
1.443651 4.435354 1.230642
1.432735 5.037195 1.324968
1.438357 4.423550 1.042893
1.436748 5.046950 1.121608
1.444287 5.070745 0.925306
2.697759 12.979743 1.571901
2.434152 9.879267 0.928479
2.694062 12.930234 1.080086
1.440954 4.376459 1.408325
1.434008 4.983515 1.523884
1.445471 4.395082 1.220693
1.431025 4.973150 1.309270
1.439434 4.381108 1.033923
1.434363 4.980497 1.107813
1.444565 5.013289 0.915626
2.734492 12.956830 1.570135
2.444671 9.792524 0.921027
2.733100 12.918983 1.079842
1.441696 4.333906 1.396048
1.436688 4.935796 1.510632
1.447056 4.354841 1.210744
1.440586 4.949189 1.304119
1.439649 4.336850 1.024516
1.438149 4.936640 1.099034
1.436236 4.927512 0.900760
2.905184 11.504842 1.520488
2.772150 12.938670 1.568957
2.497655 9.875731 0.929570
2.772094 12.907613 1.079597
1.441276 4.288669 1.382895
1.426895 4.846691 1.484694
1.289794 5.082759 1.484751
1.441332 4.293550 1.194927
1.435776 4.876857 1.286215
1.442709 4.301883 1.017296
1.438362 4.881551 1.087746
1.296818 5.086599 1.068747
1.443548 4.896630 0.895920
2.809511 12.919431 1.567662
3.522658 13.750981 1.295345
2.818049 12.928262 1.082042
1.440593 4.243477 1.369741
1.436282 4.823899 1.479055
1.322388 5.144943 1.504094
1.443319 4.256143 1.185743
1.436346 4.824114 1.273460
1.313048 5.092750 1.276537
1.448073 4.274332 1.011827
1.441602 4.837753 1.078968
1.327117 5.139523 1.080717
1.434925 4.812892 0.881400
2.852772 12.927235 1.569664
3.571082 13.764207 1.297617
2.857699 12.919555 1.082042
1.442127 4.205566 1.358926
1.438351 4.777210 1.466086
1.327501 5.099891 1.492107
1.435063 4.189492 1.168396
1.436326 4.770485 1.260461
1.333331 5.106563 1.281018
1.437485 4.200628 0.995419
1.433584 4.757465 1.062037
1.334698 5.104143 1.074134
1.438028 4.769803 0.874313
1.333370 5.093616 0.872222
2.650028 10.101799 1.338228
2.894371 12.927143 1.570723
2.630196 10.011249 0.944564
2.904742 12.943792 1.084813
1.445634 4.174013 1.350157
1.428970 4.693841 1.441839
1.352215 5.130219 1.502187
1.440954 4.164967 1.162783
1.441355 4.734523 1.252122
1.348495 5.100569 1.280546
1.434109 4.149164 0.984262
1.432782 4.702530 1.050750
1.347592 5.089604 1.071939
1.438294 4.718261 0.865670
1.356320 5.117156 0.876962
2.932258 12.910456 1.569781
2.938024 12.906637 1.082450
1.444224 4.128936 1.337003
1.435744 4.664676 1.434227
1.371421 5.139061 1.506001
1.439373 4.119451 1.151304
1.436196 4.666147 1.235198
1.365644 5.102040 1.281962
1.431074 4.099603 0.973542
1.439717 4.673813 1.045315
1.362946 5.084500 1.071740
1.429556 4.638526 0.851842
1.363831 5.082480 0.871732
2.963382 12.864627 1.565307
2.983212 12.921840 1.084487
1.439048 4.073989 1.320634
1.438076 4.621773 1.422385
1.388185 5.138545 1.507090
1.441066 4.084014 1.142630
1.428327 4.590441 1.216312
1.385357 5.112834 1.285735
1.434885 4.070346 0.967635
1.438930 4.620822 1.034446
1.381105 5.089751 1.073735
1.437921 4.615311 0.848384
1.384331 5.096361 0.874837
3.012775 12.898023 1.570488
3.029203 12.939800 1.086769
1.438368 4.032625 1.308649
1.436416 4.567001 1.406879
1.403689 5.133334 1.506818
1.436064 4.030389 1.128854
1.432514 4.554595 1.207972
1.404121 5.119806 1.288566
1.424787 4.002495 0.952539
1.432253 4.550158 1.019606
1.396973 5.086435 1.073934
1.397868 5.084480 0.873529
3.101533 13.096477 1.595803
2.357939 9.934935 0.835005
1.435503 3.985905 1.294911
1.438504 4.525085 1.395319
1.418662 5.126221 1.506001
1.433365 3.984113 1.117119
1.441194 4.533548 1.203557
1.417742 5.107983 1.286679
1.426828 3.969639 0.945757
1.430789 4.497284 1.008736
1.414933 5.090622 1.075730
1.412667 5.077316 0.873039
3.084441 12.848394 1.566720
3.107844 12.918062 1.086525
1.429424 3.931152 1.278542
1.435945 4.469497 1.379530
1.431268 5.110727 1.502732
1.433037 3.945161 1.107425
1.437304 4.473726 1.188841
1.424998 5.073671 1.279131
1.429679 3.939560 0.939632
1.425722 4.434222 0.995568
1.430810 5.087200 1.075929
1.427703 5.071059 0.872712
3.131358 12.869748 1.570488
3.146281 12.903625 1.086117
1.436205 3.912384 1.273865
1.436911 4.425832 1.367407
1.436973 5.071134 1.492379
1.432150 3.905342 1.097476
1.433060 4.413971 1.174124
1.436572 5.055253 1.275593
1.429347 4.399136 0.988670
1.428709 5.020583 1.062762
1.431091 5.023959 0.865358
3.402212 13.769568 1.159878
1.434909 3.872090 1.262173
1.432837 4.367616 1.350773
1.434228 5.002882 1.473581
1.437411 3.882795 1.092374
1.433903 4.370865 1.163823
1.432474 4.982643 1.258374
1.429110 4.352920 0.979264
1.434075 4.981335 1.055380
1.432566 4.971198 0.857023
2.479920 9.906217 0.835086
1.439410 3.847964 1.255742
1.438382 4.339521 1.343442
1.433759 4.943936 1.457508
1.435778 3.842137 1.082169
1.439071 4.341599 1.157201
1.437985 4.944633 1.249883
1.436608 4.330879 0.975293
1.432090 4.917641 1.042811
1.431797 4.911845 0.847544
2.496090 9.842529 0.830359
1.442426 3.820268 1.248142
1.439502 4.298697 1.332165
1.438087 4.902583 1.446611
1.288070 5.089611 1.432515
1.432544 3.797907 1.070944
1.432066 4.276491 1.141012
1.421337 4.832052 1.222522
1.288442 5.067276 1.215752
1.440877 4.299562 0.969231
1.436373 4.876565 1.035031
1.429841 4.849706 0.837575
3.535247 13.762770 1.161997
1.448350 3.800633 1.243173
1.442846 4.265177 1.323143
1.440533 4.855716 1.434079
1.301762 5.078159 1.430410
1.433525 3.765481 1.063036
1.436171 4.245446 1.133900
1.431167 4.810903 1.218276
1.323416 5.138758 1.233870
1.444654 4.267333 0.962961
1.437340 4.825180 1.025055
1.309201 5.069273 1.014569
1.425544 4.781007 0.826462
3.584982 13.780796 1.164443
1.442839 3.751542 1.228558
1.438861 4.210797 1.307636
1.422245 4.740682 1.401387
1.329942 5.122698 1.444098
1.429811 3.721352 1.051811
1.433829 4.196069 1.121881
1.438362 4.781364 1.211908
1.339175 5.134674 1.233870
1.426097 4.170350 0.942059
1.428396 4.741934 1.008297
1.332696 5.095626 1.020657
1.429953 4.742608 0.820578
1.348380 5.139832 0.828787
2.637095 10.010934 0.846578
1.432542 3.690932 1.210142
1.434870 4.157388 1.292411
1.421420 4.685656 1.386403
1.341727 5.103665 1.439886
1.425841 3.677281 1.040587
1.437207 4.164158 1.114523
1.432662 4.709988 1.194925
1.346466 5.098522 1.226170
1.425795 4.128058 0.933489
1.427234 4.685974 0.997324
1.350585 5.100055 1.022369
1.364649 5.137581 0.829095
1.422236 3.631311 1.192019
1.437513 4.123976 1.283389
1.426760 4.651837 1.377686
1.359364 5.106983 1.441992
1.431127 3.657582 1.036250
1.438488 4.126774 1.105693
1.425682 4.635907 1.177235
1.366379 5.110364 1.230020
1.425248 4.085807 0.924919
1.432376 4.651605 0.990940
1.358344 5.066492 1.016472
1.372194 5.102837 0.824163
1.423880 3.602917 1.184127
1.435185 4.077011 1.270138
1.435896 4.630896 1.372782
1.383309 5.133528 1.450679
1.428848 3.618999 1.026556
1.432471 4.069303 1.091467
1.426915 4.589752 1.166620
1.383069 5.109909 1.230926
1.423340 4.572339 0.974980
1.386996 5.110621 1.026174
1.380058 5.070002 0.819540
1.431385 3.589648 1.181204
1.431297 4.026484 1.255759
1.435420 4.579644 1.358888
1.400829 5.135775 1.452521
1.431356 3.593040 1.020433
1.420921 3.997293 1.073317
1.432250 4.557540 1.159544
1.398224 5.103763 1.230473
1.430890 4.547387 0.970591
1.404228 5.112022 1.027315
1.394556 5.061934 0.818924
1.430612 3.555962 1.171558
1.435541 3.999498 1.248710
1.431447 4.518349 1.341997
1.416579 5.131453 1.452521
1.430113 3.558128 1.011759
1.424335 3.968278 1.066695
1.435634 4.519782 1.151053
1.414657 5.102265 1.231152
1.429689 4.495352 0.960416
1.419117 5.104852 1.026745
1.416183 5.079522 0.822468
1.425330 3.511681 1.158405
1.436036 3.962602 1.238561
1.426231 4.454374 1.324289
1.424788 5.100138 1.444887
1.423621 3.928343 1.057129
1.428999 4.451512 1.134778
1.426357 5.083833 1.227755
1.429081 4.446166 0.950840
1.430518 5.085353 1.023701
1.424784 5.050429 0.818461
1.420515 3.469236 1.145835
1.433681 3.918533 1.226155
1.429523 4.417936 1.314754
1.440953 5.097599 1.445414
1.423674 3.891182 1.048299
1.423758 4.388873 1.119918
1.428115 5.030710 1.215978
1.431212 4.406345 0.943259
1.435094 5.042227 1.015901
1.431594 5.015630 0.813530
1.421659 3.441881 1.138235
1.433065 3.879916 1.215442
1.435296 4.389752 1.307671
1.434037 5.014313 1.423039
1.423849 3.854967 1.039715
1.429951 4.362321 1.114257
1.434132 4.993539 1.208051
1.430667 4.359106 0.934081
1.432629 4.975535 1.003345
1.434367 4.967548 0.806441
1.424856 3.419847 1.132389
1.430884 3.837744 1.203600
1.434571 4.342388 1.294866
1.427161 4.932971 1.401191
1.425170 3.822421 1.032111
1.435079 4.333006 1.107888
1.427707 4.914288 1.189933
1.428613 4.308192 0.924106
1.436356 4.931529 0.995354
1.434365 4.910960 0.797965
1.430154 3.403117 1.128297
1.437244 3.818969 1.199089
1.437529 4.306936 1.285604
1.427386 4.877645 1.386713
1.423232 3.781737 1.022300
1.430789 4.276054 1.094444
1.426300 4.853815 1.176344
1.434042 4.280560 0.919118
1.433169 4.864945 0.982798
1.432751 3.380223 1.122159
1.443843 3.801088 1.194860
1.431983 4.246889 1.268985
1.432761 4.840865 1.377500
1.424156 3.749259 1.014697
1.423674 4.211804 1.079112
1.430086 4.812070 1.167285
1.432718 4.233444 0.909941
1.429868 4.799369 0.970433
1.431085 3.347672 1.112805
1.426649 3.721389 1.171177
1.432597 4.206044 1.258088
1.427412 4.768979 1.358284
1.420730 3.705947 1.004150
1.426855 4.178907 1.071800
1.426341 4.746095 1.152337
1.421080 4.716939 0.954642
1.428855 3.314286 1.103159
1.425597 3.684781 1.161027
1.435477 4.172514 1.249370
1.433932 4.737799 1.350650
1.417751 3.664501 0.994094
1.428263 4.141437 1.063309
1.436364 4.726786 1.148713
1.431253 4.698470 0.951789
1.429484 3.287961 1.095851
1.423635 3.646428 1.150314
1.434376 4.128100 1.237383
1.430958 4.676183 1.334329
1.421582 3.641170 0.988943
1.426578 4.095739 1.052694
1.427688 4.646941 1.130368
1.429480 4.641515 0.941135
1.418445 3.235388 1.079774
1.428134 3.625083 1.144957
1.432379 4.081917 1.224851
1.421917 4.596196 1.312744
1.424626 4.050090 1.042080
1.428070 4.597890 1.119497
1.429413 4.591177 0.931813
1.419858 3.211778 1.073344
1.424364 3.583239 1.133115
1.432041 4.041227 1.213954
1.418446 4.535646 1.296687
1.426311 4.015482 1.034297
1.430791 4.557244 1.110664
1.425809 4.530583 0.920398
1.414520 3.173342 1.061944
1.426779 3.557480 1.126349
1.423686 3.978835 1.196519
1.426539 4.512876 1.291422
1.423532 3.969009 1.023446
1.428268 4.500844 1.097981
1.420954 4.467247 0.908413
1.424641 3.169859 1.062236
1.422932 3.516621 1.114789
1.420848 3.932821 1.183987
1.428634 4.471719 1.280893
1.429084 3.946349 1.018729
1.429576 4.457486 1.088469
1.428043 4.442305 0.904228
1.419573 3.477597 1.103793
1.421037 3.895903 1.174179
1.431379 4.433347 1.271153
1.428171 3.906351 1.009530
1.426128 4.400265 1.075560
1.434992 4.417362 0.900042
1.423294 3.456369 1.098437
1.428993 3.880689 1.170910
1.431209 4.386745 1.259045
1.423998 3.858191 0.998208
1.419614 4.334777 1.060612
1.430779 4.358837 0.889008
1.420642 3.420089 1.088287
1.424465 3.832095 1.157561
1.428653 4.333773 1.245093
1.420560 3.812825 0.987594
1.418219 4.286015 1.049741
1.425566 3.402441 1.084058
1.426413 3.801582 1.149660
1.432187 4.300081 1.236670
1.420279 3.776613 0.979338
1.421479 4.252083 1.042494
1.425541 3.373306 1.076163
1.428187 3.771094 1.141760
1.433374 4.260006 1.226404
1.421513 3.744982 0.972262
1.418312 4.199716 1.030716
1.415570 3.321256 1.060939
1.423947 3.725351 1.129228
1.419737 4.177035 1.203766
1.419240 4.160315 1.022110
1.426131 3.317779 1.061221
1.416324 3.671592 1.114244
1.419701 4.135249 1.192973
1.422795 4.129236 1.015542
1.412573 3.628674 1.102530
1.418791 4.091680 1.181654
1.424892 4.094494 1.008068
1.413848 3.599248 1.094902
1.421772 4.059992 1.173757
1.427113 4.060698 1.000821
1.415312 3.570742 1.087546
1.421677 4.020140 1.163491
1.417086 3.992964 0.985194
1.420901 3.552983 1.083460
1.427191 3.996680 1.157963
1.421444 3.966591 0.979758
1.416673 3.511131 1.072018
1.422757 3.945998 1.144538
1.422671 3.931987 0.972284
1.421998 3.493400 1.067931
1.427927 3.922577 1.139010
1.422027 3.892838 0.963678
1.421013 3.460540 1.059213
1.413997 3.847547 1.118478
1.411371 3.407272 1.044230
1.410359 3.801584 1.106369
1.411802 3.378956 1.036874
1.412204 3.771039 1.098736
1.414315 3.355989 1.031153
1.414556 3.742324 1.091628
1.412620 3.702813 1.081362
1.417041 3.680456 1.076098
1.412254 3.634726 1.063989
1.417411 3.615107 1.059514
1.413235 3.572167 1.048195
1.409166 3.530183 1.037139
1.411340 3.504366 1.030822
1.409374 3.468738 1.021608
1.411960 3.444759 1.015817
2.280945 2.616931 1.061067
2.299052 2.621425 1.065744
2.315942 2.624398 1.069836
2.327793 2.621571 1.071590
2.343470 2.622975 1.075098
2.354703 2.619329 1.076559
2.360804 2.609964 1.075682
2.375880 2.610489 1.078898
2.392274 2.612356 1.082698
2.404814 2.609928 1.084744
2.433615 2.624979 1.094097
2.456661 2.633585 1.100820
2.471928 2.633706 1.104036
2.484593 2.630977 1.106082
2.497923 2.628888 1.108420
2.510602 2.626051 1.110467
2.525940 2.625917 1.113682
2.541300 2.625714 1.116897
2.557350 2.626127 1.120405
2.574096 2.627149 1.124205
2.588186 2.625369 1.126835
2.397873 2.624132 1.044586
2.608351 2.629637 1.132097
2.407861 2.618882 1.045432
2.621810 2.627038 1.134435
2.421097 2.617117 1.047688
2.636634 2.625730 1.137359
2.433690 2.614592 1.049661
2.652154 2.625029 1.140574
2.448914 2.614817 1.052762
2.675193 2.631634 1.147005
2.466795 2.617765 1.056992
2.697614 2.637454 1.153143
2.482736 2.618539 1.060375
2.714609 2.637829 1.156943
2.504665 2.625489 1.066295
2.728880 2.635468 1.159574
2.523339 2.628867 1.070807
2.749372 2.639003 1.164835
2.538724 2.628704 1.073908
2.765067 2.637817 1.168051
2.553463 2.627784 1.076727
2.779392 2.635244 1.170681
2.563525 2.621996 1.077573
2.809736 2.647692 1.180035
2.574921 2.617538 1.078983
2.824826 2.645596 1.182958
2.591038 2.617809 1.082366
2.839929 2.643433 1.185881
2.605151 2.615966 1.084904
2.805389 2.613020 1.011504
2.853642 2.639903 1.188220
2.625388 2.620161 1.089978
2.831132 2.620822 1.017882
2.870175 2.638903 1.191727
2.643631 2.622229 1.094208
2.851967 2.623908 1.022474
2.892377 2.642987 1.197573
2.669428 2.631618 1.101538
2.868567 2.622976 1.025535
2.903304 2.636673 1.198743
2.698049 2.643560 1.109996
2.891628 2.627819 1.030892
2.917059 2.632879 1.201081
2.713020 2.641964 1.112816
2.912592 2.630601 1.035484
2.925835 2.624556 1.201373
2.725938 2.638299 1.114789
2.931442 2.631341 1.039311
2.941011 2.621931 1.204296
2.737477 2.633249 1.116199
2.943830 2.626197 1.040842
2.965504 2.627483 1.211019
2.750397 2.629479 1.118172
2.538062 2.617105 1.032243
2.964173 2.628058 1.045178
2.983600 2.627220 1.215112
2.766102 2.628298 1.121274
2.556831 2.620325 1.036601
2.981653 2.627262 1.048495
3.016115 2.639467 1.225050
2.776245 2.621776 1.122120
2.570924 2.618647 1.039053
3.005702 2.632116 1.054107
3.047289 2.650284 1.234404
2.799666 2.627691 1.128322
2.585708 2.617593 1.041778
3.019598 2.627961 1.056148
3.072046 2.655306 1.241127
2.832270 2.641995 1.138190
2.605257 2.621249 1.046409
3.031303 2.621847 1.057424
3.091785 2.655839 1.245804
2.845287 2.637860 1.140164
2.628255 2.628212 1.052402
3.051798 2.623249 1.061761
3.105010 2.650687 1.247850
2.861128 2.636269 1.143265
2.642448 2.626240 1.054854
3.074535 2.626435 1.066863
3.121149 2.647955 1.251065
2.876986 2.634607 1.146366
2.656653 2.624206 1.057306
3.095109 2.627628 1.071200
3.131452 2.640216 1.251942
2.894279 2.634163 1.150032
2.681170 2.632221 1.063845
3.116459 2.629343 1.075792
3.154198 2.642880 1.257788
2.920136 2.641361 1.157080
2.703006 2.637422 1.069293
3.134884 2.628467 1.079363
3.184338 2.651549 1.266557
2.927512 2.631749 1.156798
2.717992 2.635815 1.072018
3.162247 2.634930 1.085996
3.203510 2.650913 1.270942
2.950597 2.636179 1.162719
2.730223 2.631471 1.073652
3.173295 2.627683 1.087016
3.222707 2.650183 1.275326
2.960823 2.629025 1.163565
2.735504 2.620420 1.072562
3.191047 2.625922 1.090333
3.238968 2.646940 1.278542
2.976788 2.626912 1.166666
2.753286 2.621303 1.076376
3.208819 2.624077 1.093649
2.951912 2.604959 0.996056
3.253012 2.641814 1.280880
3.010801 2.640541 1.176816
2.773895 2.624748 1.081280
3.228110 2.623367 1.097476
2.978840 2.612510 1.002433
3.270777 2.639629 1.284680
3.036246 2.646421 1.183582
2.798056 2.631386 1.087546
3.248932 2.623779 1.101813
2.997072 2.612277 1.005867
3.288558 2.637360 1.288480
3.053779 2.645260 1.187248
2.829312 2.644471 1.096536
3.261490 2.617430 1.103343
3.019728 2.615765 1.010772
3.307104 2.635603 1.292572
3.073514 2.645894 1.191759
2.837412 2.635778 1.096536
3.298232 2.630320 1.113037
3.035086 2.612813 1.013225
3.339165 2.644443 1.301926
3.085262 2.639571 1.193168
2.859624 2.640114 1.101985
3.316895 2.628597 1.116609
3.060030 2.617984 1.018866
3.368305 2.650746 1.310111
3.098462 2.634443 1.195142
2.870547 2.633930 1.103075
2.660659 2.631526 1.021082
3.339377 2.629775 1.121456
3.077649 2.616748 1.022055
3.401281 2.659841 1.319757
3.115324 2.632356 1.198525
2.885012 2.630946 1.105527
2.671472 2.626056 1.022135
3.364943 2.633222 1.127323
3.109359 2.627315 1.029904
3.351976 2.624679 0.954508
3.419997 2.657608 1.323849
3.130732 2.628955 1.201345
2.900200 2.628544 1.108251
2.683656 2.621893 1.023714
3.386745 2.633570 1.131915
3.138192 2.635220 1.036771
3.369254 2.621574 0.957134
3.439489 2.655871 1.328234
3.157936 2.635321 1.208675
2.916829 2.627362 1.111520
2.696532 2.618351 1.025557
3.407051 2.632627 1.135997
3.152961 2.631170 1.038979
3.388860 2.620177 0.960415
3.462036 2.656367 1.333787
3.180038 2.637257 1.214032
2.932762 2.625460 1.114517
2.710106 2.615425 1.027663
3.445788 2.645716 1.146201
3.172958 2.631386 1.042903
3.413132 2.622252 0.965010
3.485380 2.657330 1.339633
3.195517 2.633590 1.216851
2.945116 2.620288 1.116151
2.729257 2.617784 1.031874
3.472339 2.649208 1.152324
3.195231 2.633354 1.047563
3.439775 2.625979 0.970260
3.507237 2.657019 1.344895
3.219170 2.636540 1.222772
2.959628 2.616976 1.118603
2.750543 2.622046 1.036876
3.494319 2.649057 1.156916
3.206295 2.625996 1.048544
3.459477 2.624259 0.973542
3.531417 2.658324 1.351033
3.255520 2.649666 1.233486
2.979930 2.618681 1.123235
2.765577 2.620230 1.039508
3.517876 2.649959 1.162018
3.227118 2.626550 1.052714
3.497122 2.635952 0.981855
3.549511 2.654924 1.354833
3.280045 2.652939 1.239688
3.008242 2.627248 1.130863
2.782734 2.620331 1.042930
3.534505 2.645528 1.164824
3.244960 2.624562 1.055903
3.527061 2.641589 0.987981
3.573759 2.656001 1.360972
3.298638 2.651279 1.243636
3.038087 2.636928 1.139036
2.798508 2.619032 1.045826
3.558122 2.646212 1.169926
3.263576 2.623097 1.059336
3.546890 2.639494 0.991262
3.598815 2.657522 1.367402
3.320250 2.651924 1.248710
3.054177 2.634508 1.142032
2.829135 2.631460 1.054249
3.587997 2.651373 1.177069
3.284485 2.623358 1.063506
3.562817 2.634401 0.993450
3.620059 2.656086 1.372372
3.341146 2.651865 1.253503
3.066628 2.628882 1.143667
2.847112 2.631936 1.057935
3.620276 2.658092 1.184978
3.309983 2.627131 1.069147
3.580319 2.630391 0.996075
3.642101 2.655108 1.377633
3.365839 2.654673 1.259706
3.084200 2.627573 1.147209
2.867961 2.634937 1.062673
3.637006 2.653242 1.187784
3.330968 2.627170 1.073317
3.080722 2.620623 0.981697
3.594677 2.623997 0.997826
3.661847 2.652336 1.382018
3.390581 2.657355 1.265909
3.112074 2.634886 1.154564
2.887430 2.636534 1.066885
3.656873 2.650583 1.191611
3.358851 2.632487 1.079694
3.106559 2.626216 0.987358
3.615349 2.622122 1.001326
3.686268 2.652820 1.388156
3.413100 2.658141 1.271266
3.136340 2.638954 1.160558
2.902650 2.634147 1.069517
3.668910 2.642176 1.192886
3.376855 2.629913 1.082883
3.137667 2.636051 0.994670
3.630502 2.616152 1.003295
3.707614 2.650954 1.393125
3.431103 2.655291 1.274931
3.154755 2.637960 1.164372
2.925045 2.638152 1.074781
3.689581 2.639910 1.196968
3.408674 2.637934 1.090486
3.153945 2.633263 0.997265
3.666280 2.624883 1.010952
3.729763 2.649536 1.398387
3.452162 2.654695 1.279724
3.176894 2.639953 1.169548
2.939591 2.634961 1.077151
3.712636 2.639223 1.201815
3.427510 2.635737 1.093920
3.174723 2.634124 1.001274
3.687037 2.622672 1.014452
3.757407 2.651867 1.405695
3.472488 2.653412 1.284235
3.192397 2.636321 1.172272
2.967831 2.643898 1.084521
3.752307 2.650132 1.212019
3.450987 2.636982 1.098826
3.188788 2.629317 1.003161
3.710207 2.622048 1.018609
3.781969 2.651856 1.411833
3.492838 2.652029 1.288746
3.207908 2.632618 1.174997
2.986763 2.644373 1.088470
3.773876 2.648049 1.216356
3.474503 2.638107 1.103731
3.201349 2.623217 1.004577
3.742990 2.628035 1.025391
3.801857 2.648441 1.416217
3.516276 2.652857 1.294385
3.230882 2.634926 1.180445
2.997758 2.637746 1.089522
3.790707 2.642541 1.219162
3.495737 2.637361 1.107901
3.218425 2.620747 1.007407
3.769442 2.629379 1.030423
3.825692 2.647649 1.422064
3.538985 2.652991 1.299741
3.259881 2.641964 1.188073
3.005111 2.627902 1.089259
3.805951 2.635853 1.221458
3.517774 2.637090 1.112315
3.237026 2.619419 1.010709
3.781501 2.620581 1.031517
3.852709 2.648903 1.429079
3.560188 2.651864 1.304535
3.280711 2.642211 1.192705
3.025538 2.629428 1.093734
3.825968 2.632386 1.225285
3.539842 2.636710 1.116731
3.257164 2.619219 1.014483
3.803990 2.618927 1.035455
3.520341 2.620942 0.938087
3.871874 2.644622 1.433171
3.582188 2.651203 1.309609
3.300070 2.641151 1.196791
3.043082 2.628331 1.097156
3.850789 2.632094 1.230642
3.556487 2.632181 1.119428
3.280367 2.621347 1.019201
3.838586 2.625423 1.042674
3.539372 2.618272 0.941014
3.894213 2.642396 1.438433
3.608856 2.653842 1.316376
3.314934 2.636405 1.199243
3.066504 2.632178 1.102684
3.876445 2.632217 1.236255
3.584071 2.635616 1.125560
3.298288 2.619127 1.022267
3.874871 2.632828 1.050331
3.554479 2.612613 0.942895
3.915782 2.639523 1.443402
3.631699 2.653512 1.321733
3.333576 2.634574 1.203057
3.085574 2.632150 1.106633
3.901336 2.631667 1.241612
3.602316 2.632043 1.128749
3.327668 2.625851 1.028871
3.883739 2.621474 1.050550
3.581432 2.615538 0.947911
3.962004 2.653038 1.457432
3.658457 2.655885 1.328499
3.368128 2.645135 1.212592
3.099522 2.627662 1.108739
3.939111 2.639601 1.251051
3.623711 2.630661 1.132919
3.351003 2.627622 1.033589
3.915266 2.625305 1.056894
3.596563 2.609707 0.949792
3.988439 2.653052 1.464155
3.676704 2.651945 1.332165
3.388364 2.644260 1.216951
3.114947 2.624356 1.111371
3.972142 2.644113 1.258959
3.641200 2.626336 1.135862
3.367481 2.623899 1.036183
3.945229 2.627887 1.062801
3.622004 2.611242 0.954391
4.017304 2.654511 1.471755
3.695741 2.648477 1.336112
3.411667 2.645645 1.222400
3.151832 2.638941 1.121637
3.997173 2.643114 1.264317
3.666576 2.627577 1.141258
3.393188 2.627239 1.041609
3.971989 2.628155 1.067833
3.648283 2.613214 0.959198
4.052612 2.660015 1.481694
3.711664 2.642691 1.338931
3.433486 2.645737 1.227303
3.168812 2.636663 1.124796
4.024659 2.643578 1.270439
3.704630 2.637682 1.150578
3.421257 2.632224 1.047741
3.993080 2.624532 1.071333
3.667438 2.609948 0.962125
4.075975 2.657493 1.487248
3.737770 2.644035 1.345416
3.457630 2.647474 1.233024
3.181347 2.630618 1.126375
4.052185 2.643899 1.276562
3.744363 2.648699 1.160389
3.458654 2.644143 1.056704
4.020722 2.625071 1.076584
3.687405 2.607152 0.965260
4.096149 2.652774 1.491632
3.755283 2.639175 1.348799
3.487943 2.653750 1.240925
3.198347 2.628195 1.129534
4.072449 2.639342 1.280388
3.761196 2.643330 1.163087
3.476809 2.641161 1.059771
4.064779 2.636085 1.086210
3.726594 2.617750 0.973412
4.018207 2.605882 0.888840
4.133222 2.658820 1.502155
3.783816 2.641922 1.356130
3.506046 2.650580 1.244467
3.215362 2.625693 1.132693
4.099226 2.638874 1.286256
3.778827 2.638439 1.166030
3.502735 2.643948 1.065196
3.228118 2.630105 0.968208
4.083511 2.630471 1.089054
3.754656 2.620295 0.978637
4.060072 2.615372 0.896321
4.155060 2.654881 1.507124
3.814765 2.646159 1.364306
3.531085 2.652524 1.250460
3.243628 2.632229 1.139800
4.135000 2.643995 1.294930
3.797259 2.634016 1.169219
3.516272 2.637271 1.066847
3.249798 2.631221 0.972284
4.105535 2.626871 1.092773
3.775536 2.617679 0.981982
4.082984 2.612442 0.899606
4.180141 2.652882 1.513263
3.842616 2.648054 1.371354
3.552315 2.651463 1.255091
3.280976 2.645884 1.150066
4.157784 2.640627 1.299522
3.818094 2.631156 1.173143
3.538372 2.636923 1.071092
3.272274 2.632839 0.976587
4.125928 2.622114 1.096055
3.792408 2.612186 0.984281
4.100938 2.606232 0.901795
4.206868 2.651774 1.519986
3.868139 2.648176 1.377557
3.569707 2.647430 1.258361
3.298865 2.643649 1.153488
4.178951 2.636113 1.303603
3.846947 2.633668 1.179520
3.558160 2.634730 1.074630
3.291747 2.631912 0.979985
4.160358 2.626110 1.103056
3.814124 2.609927 0.987834
4.138014 2.612006 0.908182
4.236059 2.652049 1.527586
3.892905 2.647627 1.383478
3.595627 2.649594 1.264627
3.322053 2.645535 1.158753
4.216516 2.641761 1.312787
3.875050 2.635484 1.185652
3.578751 2.633015 1.078404
3.312008 2.631495 0.983608
4.192370 2.628365 1.109400
3.840714 2.610857 0.992642
4.165167 2.611311 0.912379
4.275848 2.658735 1.538986
3.928039 2.653934 1.393064
3.613832 2.645939 1.268168
3.339989 2.643113 1.162175
4.241020 2.639029 1.317889
3.903199 2.637151 1.191784
3.603287 2.634067 1.083358
3.335355 2.633393 0.988138
4.213667 2.623743 1.112900
3.872209 2.614933 0.998703
4.196529 2.613072 0.917488
4.304327 2.658166 1.546293
3.953689 2.653633 1.399266
3.633603 2.643330 1.272255
3.356424 2.639414 1.165071
4.282819 2.646847 1.328349
3.922541 2.632728 1.195218
3.627077 2.634421 1.088075
3.363343 2.638780 0.994026
4.239955 2.622095 1.117713
3.897267 2.614482 1.003093
4.224596 2.612596 0.921868
4.327951 2.654448 1.551847
3.980970 2.654265 1.406033
3.672108 2.654152 1.282879
3.375908 2.638014 1.169019
4.309049 2.644822 1.333961
3.943505 2.629286 1.199142
3.650902 2.634655 1.092793
3.375263 2.631443 0.995159
4.271260 2.623373 1.123839
3.929683 2.618782 1.009363
4.266941 2.620720 0.929349
4.354042 2.652103 1.558278
4.012291 2.657403 1.414209
3.691176 2.650731 1.286693
3.422847 2.657820 1.182444
4.358424 2.656753 1.346716
3.987925 2.641264 1.210180
3.669235 2.630803 1.095859
3.401800 2.635392 1.000594
4.326772 2.639220 1.136309
3.962161 2.622908 1.015634
4.295106 2.619905 0.933729
4.405526 2.664966 1.573770
4.038059 2.656682 1.420412
3.709473 2.646658 1.290235
3.446261 2.659093 1.187708
4.387233 2.655888 1.353094
4.006538 2.635944 1.213368
3.693910 2.631374 1.100812
3.415272 2.629102 1.002180
4.366563 2.645145 1.144622
3.986531 2.621486 1.019815
4.328352 2.621998 0.939203
4.426798 2.659317 1.578447
4.066268 2.657402 1.427460
3.726995 2.641943 1.293504
3.459762 2.652617 1.189551
4.407791 2.649888 1.356921
4.025968 2.631065 1.216802
3.721797 2.634063 1.106709
3.441116 2.632222 1.007389
4.378002 2.633748 1.145498
4.014205 2.622078 1.024831
3.693036 2.611677 0.920914
4.359124 2.622391 0.944130
4.457111 2.658952 1.586339
4.088887 2.654318 1.432535
3.750029 2.641023 1.298680
3.479395 2.650759 1.193500
4.434995 2.647753 1.362788
4.058415 2.634536 1.224160
3.752913 2.638843 1.113549
3.465459 2.634030 1.012145
4.396951 2.626810 1.148342
4.050123 2.627847 1.031938
3.728292 2.619488 0.927697
4.393314 2.624637 0.949786
4.487462 2.658425 1.594231
4.126846 2.660998 1.442967
3.780188 2.644950 1.306309
3.500587 2.649971 1.197975
4.457237 2.642517 1.367125
4.077070 2.628903 1.227349
3.777721 2.639003 1.118503
3.502282 2.645106 1.020525
4.424292 2.624759 1.153373
4.088579 2.635010 1.039672
3.753184 2.619816 0.931887
4.423331 2.624190 0.954531
4.511258 2.653859 1.599785
4.151149 2.658674 1.448606
3.806456 2.645972 1.312574
3.527975 2.653717 1.204555
4.489486 2.643055 1.374523
4.108791 2.631545 1.234462
3.805759 2.641253 1.124399
3.522067 2.643118 1.023922
4.472678 2.634947 1.163875
4.105703 2.628254 1.041971
3.778114 2.620016 0.936076
4.449151 2.621087 0.958363
4.548281 2.656889 1.610016
4.175476 2.656225 1.454244
3.830390 2.645216 1.318023
3.546146 2.650389 1.207978
4.520947 2.642933 1.381666
4.131569 2.628293 1.238877
3.821045 2.634529 1.126522
3.539529 2.639287 1.026640
4.498428 2.631560 1.168469
4.133553 2.628238 1.046987
3.802273 2.619531 0.940066
4.486026 2.624305 0.964567
4.581227 2.657317 1.618785
4.204695 2.656727 1.461575
3.848009 2.639984 1.321292
3.562780 2.645824 1.210873
4.545759 2.638759 1.386769
4.164200 2.631141 1.246235
3.845144 2.633777 1.131240
3.556218 2.634794 1.029131
4.545293 2.640292 1.178532
4.161441 2.628076 1.052004
3.815143 2.611174 0.941263
4.516161 2.623370 0.969311
4.619192 2.660432 1.629308
4.230704 2.655035 1.467777
3.880737 2.644965 1.329738
3.590287 2.649201 1.217454
4.571425 2.634940 1.392126
4.187033 2.627628 1.250650
3.868471 2.632355 1.135721
3.572129 2.629645 1.031396
4.565205 2.633160 1.181595
4.182739 2.623611 1.055348
3.845015 2.614333 0.946650
4.542925 2.620309 0.973326
4.646426 2.657168 1.636031
4.251043 2.649655 1.472007
3.914329 2.650309 1.338455
3.616293 2.651294 1.223508
4.624804 2.646838 1.405902
4.209884 2.624001 1.255065
3.897462 2.634625 1.141854
3.594331 2.629024 1.035473
4.593584 2.630781 1.186846
4.208199 2.621625 1.059738
3.881438 2.621721 0.953633
4.576539 2.621019 0.978800
4.198713 2.614902 0.868090
4.676178 2.655177 1.643631
4.296678 2.659831 1.484976
3.942401 2.651712 1.345266
3.628309 2.643027 1.224824
4.661485 2.648879 1.414575
4.257480 2.635566 1.266838
3.920047 2.632406 1.146100
3.618926 2.630009 1.040229
4.631322 2.633557 1.194503
4.235349 2.620536 1.064545
3.904924 2.620174 0.957423
4.609344 2.621060 0.984092
4.223469 2.612370 0.871547
4.326885 2.660203 1.492588
3.957718 2.644416 1.347718
3.656720 2.646589 1.231668
4.685590 2.643593 1.419422
4.288670 2.636708 1.273706
3.945082 2.631692 1.151053
3.636454 2.625736 1.042946
4.662321 2.632289 1.200410
4.265031 2.620842 1.069980
3.927620 2.617965 0.961014
4.632775 2.615607 0.987376
4.245731 2.608165 0.874486
4.355497 2.659416 1.499637
3.985853 2.645563 1.354529
3.676571 2.643806 1.235617
4.709707 2.638183 1.424269
4.333973 2.646273 1.284743
3.970959 2.631386 1.156242
3.664278 2.628762 1.048608
4.692506 2.630378 1.206098
4.306442 2.628122 1.078341
3.950340 2.615640 0.964606
4.667365 2.616285 0.993033
4.278937 2.610516 0.879672
4.380864 2.656488 1.505557
4.019657 2.650271 1.363247
3.703504 2.645974 1.241935
4.740594 2.636410 1.431157
4.363624 2.646033 1.291120
4.009047 2.638961 1.164969
3.681050 2.623726 1.051100
4.727838 2.631153 1.213099
4.324520 2.620980 1.080849
3.984544 2.620739 0.970990
4.711453 2.622035 1.000697
4.303774 2.607584 0.883129
4.414472 2.658378 1.514298
4.058355 2.657958 1.373599
3.738352 2.653586 1.250885
4.790137 2.644754 1.443658
4.385009 2.640635 1.295044
4.042338 2.643135 1.172281
3.709749 2.627056 1.056988
4.765781 2.633152 1.220756
4.366055 2.627872 1.089210
4.008973 2.619222 0.974980
4.751317 2.625161 1.007449
4.330321 2.605540 0.886932
4.434959 2.652209 1.518527
4.076169 2.651791 1.376868
3.763820 2.654336 1.256676
4.826209 2.645383 1.452076
4.417219 2.641599 1.302157
4.059392 2.636543 1.174876
3.729741 2.624069 1.060386
4.799502 2.632597 1.227319
4.400118 2.630018 1.095689
4.033429 2.617579 0.978970
4.791245 2.628067 1.014200
4.372114 2.612451 0.893846
4.476897 2.658676 1.530086
4.096407 2.647107 1.380955
3.783797 2.651080 1.260624
4.881863 2.656444 1.466362
4.442807 2.638430 1.307308
