x      y      z
19.437602 5.062358 -0.722479
15.973905 4.787511 -0.755207
13.573616 4.610768 -0.788169
11.720766 4.460709 -0.809445
10.408978 2.705110 -0.780155
9.266564 2.772507 -0.794369
8.321008 2.821186 -0.804405
7.521490 2.859536 -0.816079
7.203590 1.866853 -0.814458
6.591016 1.967862 -0.818143
6.079832 2.059318 -0.825611
5.625451 2.136673 -0.833400
5.550958 1.435566 -0.841448
5.069530 1.510417 -0.826935
4.759501 1.609327 -0.834187
4.446892 1.688497 -0.838472
4.359356 1.124152 -0.830896
4.114769 1.223140 -0.834108
3.877704 1.308300 -0.836117
3.637851 1.381520 -0.835369
3.651811 0.937212 -0.841832
3.471637 1.029130 -0.843890
3.273898 1.104200 -0.841111
3.091792 1.173036 -0.840568
3.111607 0.794579 -0.845925
2.986851 0.882869 -0.851883
2.827693 0.952882 -0.847686
2.697033 1.023802 -0.852002
21.709004 8.194111 -0.647335
19.424973 4.995482 -0.721437
15.956911 4.729114 -0.753714
13.568770 4.562738 -0.787071
11.750270 4.430714 -0.810540
10.414330 2.672420 -0.779938
9.326634 2.759333 -0.798789
8.332457 2.796594 -0.804679
7.530228 2.836447 -0.816079
7.186171 1.838830 -0.811847
6.594165 1.946788 -0.817789
6.079539 2.038448 -0.824718
5.640323 2.122544 -0.834635
5.603269 1.430768 -0.848708
5.068454 1.493181 -0.826008
4.757868 1.592526 -0.833040
4.464955 1.679701 -0.840902
4.361831 1.110530 -0.830714
4.142047 1.217431 -0.838877
3.899356 1.302295 -0.839920
3.632922 1.366910 -0.833270
3.646154 0.923846 -0.839871
3.469170 1.016831 -0.842528
3.283722 1.096305 -0.842767
3.091747 1.162181 -0.839582
3.116843 0.785738 -0.846690
2.988620 0.873431 -0.851619
2.826040 0.942681 -0.846320
2.696571 1.014172 -0.850869
21.961560 8.212551 -0.654111
19.400495 4.925780 -0.719963
15.986682 4.684631 -0.754438
13.578914 4.519827 -0.786852
11.767548 4.396041 -0.810798
10.423447 2.640702 -0.780010
9.266183 2.710560 -0.792896
8.336272 2.769448 -0.804223
7.540759 2.814027 -0.816281
7.192742 1.817018 -0.811956
6.586762 1.922653 -0.816136
6.107415 2.026973 -0.827652
5.655162 2.108344 -0.835870
5.654642 1.425421 -0.855823
5.070165 1.476795 -0.825545
4.744938 1.572027 -0.829928
4.467319 1.664963 -0.840381
4.371893 1.098821 -0.831985
4.114655 1.195678 -0.832582
3.906124 1.291248 -0.840521
3.657253 1.363271 -0.837887
3.712407 0.928522 -0.854471
3.486305 1.010249 -0.845933
3.272309 1.081347 -0.838982
3.111647 1.158778 -0.844017
3.132376 0.779441 -0.850256
2.986652 0.862919 -0.850300
2.824352 0.932498 -0.844954
2.712251 1.010582 -0.854835
21.182019 6.989112 -0.407254
21.995087 8.148261 -0.654362
19.454290 4.875955 -0.721401
15.974114 4.627779 -0.753171
13.593665 4.478458 -0.786906
11.772556 4.356801 -0.810218
10.442143 2.611372 -0.780806
9.269669 2.680734 -0.792487
8.344729 2.743860 -0.804223
7.550289 2.791224 -0.816382
7.194425 1.793980 -0.811520
6.610757 1.907667 -0.818380
6.099471 2.003583 -0.825739
5.643949 2.084464 -0.833263
5.672431 1.411411 -0.857856
5.074672 1.461233 -0.825545
4.754426 1.558999 -0.830747
4.478873 1.653637 -0.841596
4.360927 1.081851 -0.829262
4.146608 1.191180 -0.838304
3.909136 1.278953 -0.840321
3.666922 1.354076 -0.839147
3.659334 0.903328 -0.841614
3.480962 0.997135 -0.843890
3.318091 1.085197 -0.849863
3.117006 1.149897 -0.844509
3.122544 0.766830 -0.846944
2.992995 0.854812 -0.851355
2.844572 0.929506 -0.850146
2.679350 0.988972 -0.843505
21.195758 6.921611 -0.407108
21.869836 8.025643 -0.649901
19.237302 4.758891 -0.712810
15.929654 4.561973 -0.750411
13.688032 4.463042 -0.791573
11.721218 4.296962 -0.805774
10.445263 2.578129 -0.780444
9.321929 2.664884 -0.796252
8.350267 2.717321 -0.803949
7.569094 2.771810 -0.817492
7.173833 1.765485 -0.808583
6.619443 1.888194 -0.818734
6.095213 1.981488 -0.824336
5.659620 2.070542 -0.834635
5.679616 1.394709 -0.858291
5.081982 1.446469 -0.826008
4.786398 1.553236 -0.835497
4.466352 1.633461 -0.838298
4.362315 1.067999 -0.828899
4.153077 1.179257 -0.838877
3.905584 1.264540 -0.838719
3.672895 1.343491 -0.839566
3.657348 0.890942 -0.840524
3.484005 0.986451 -0.843890
3.333423 1.078901 -0.852938
3.095941 1.131347 -0.837858
3.112665 0.754285 -0.843633
2.991890 0.844577 -0.850300
2.834597 0.916631 -0.846320
2.685974 0.982065 -0.844638
21.224504 6.859010 -0.407254
19.260549 4.701983 -0.713133
15.888785 4.497571 -0.747833
13.723516 4.428079 -0.792835
11.728718 4.258938 -0.805387
10.431805 2.540878 -0.778852
9.337734 2.638440 -0.796907
8.364252 2.693521 -0.804496
7.568209 2.745183 -0.816483
7.205297 1.749802 -0.811520
6.631895 1.869763 -0.819561
6.095598 1.960956 -0.823570
5.660358 2.051144 -0.833812
5.684830 1.377511 -0.858437
5.093053 1.432744 -0.827089
4.775173 1.533416 -0.832713
4.468565 1.618745 -0.837777
4.385645 1.059460 -0.832711
4.128321 1.158553 -0.833154
3.917843 1.255242 -0.840521
3.708254 1.343541 -0.846703
3.676196 0.883594 -0.844229
3.517964 0.984418 -0.851380
3.308957 1.059779 -0.845842
3.126737 1.131739 -0.845248
3.143179 0.751478 -0.851275
3.002829 0.837727 -0.852674
2.818156 0.901774 -0.840581
2.698894 0.977412 -0.847754
21.257828 6.797821 -0.407491
21.802044 7.849313 -0.646443
19.230190 4.632105 -0.711480
15.893851 4.446381 -0.747426
13.737988 4.386259 -0.792890
11.700411 4.208075 -0.802553
10.459916 2.513756 -0.780372
9.316987 2.601738 -0.794451
8.381016 2.670569 -0.805317
7.571914 2.720269 -0.815978
7.216432 1.729078 -0.812173
6.612729 1.842478 -0.816490
6.105366 1.943449 -0.824080
5.651707 2.028415 -0.831617
5.685180 1.359143 -0.857856
5.116463 1.422404 -0.830178
4.799599 1.525032 -0.836152
4.484634 1.609019 -0.839860
4.390788 1.046456 -0.833074
4.157396 1.152965 -0.838304
3.915138 1.241144 -0.839120
3.698555 1.327204 -0.843554
3.677940 0.872087 -0.844011
3.518152 0.972842 -0.850700
3.315898 1.050796 -0.846788
3.153915 1.130645 -0.851654
3.137940 0.740056 -0.849237
2.995156 0.825691 -0.849772
2.832831 0.896898 -0.844134
2.734378 0.980784 -0.857951
21.310041 6.742524 -0.408093
19.097498 4.538198 -0.706052
15.974818 4.416231 -0.750592
13.743763 4.341684 -0.792451
11.663442 4.154412 -0.799140
10.463697 2.480734 -0.780082
9.332611 2.575263 -0.795106
8.383470 2.643047 -0.804770
7.576475 2.695692 -0.815575
7.218800 1.706244 -0.811847
6.633669 1.826399 -0.818380
6.115084 1.925901 -0.824591
5.670037 2.015379 -0.833400
5.673916 1.338062 -0.855533
5.156053 1.416384 -0.835893
4.792021 1.506454 -0.834023
4.489549 1.595252 -0.839860
4.400679 1.034556 -0.834344
4.170381 1.142799 -0.840212
3.923602 1.230593 -0.840121
3.702609 1.315851 -0.843554
3.669194 0.858132 -0.841396
3.520181 0.961787 -0.850473
3.317252 1.040037 -0.846315
3.149148 1.118045 -0.849436
3.161859 0.735464 -0.855095
3.016289 0.821568 -0.855049
2.837406 0.888778 -0.844680
2.671403 0.948956 -0.837274
21.315360 6.672335 -0.407801
21.946882 7.749672 -0.649315
19.062682 4.468183 -0.704255
16.038402 4.380888 -0.752945
13.590238 4.247374 -0.782844
11.685544 4.121929 -0.799784
10.472230 2.448847 -0.780155
9.336621 2.545570 -0.794778
8.343056 2.602192 -0.800120
7.565943 2.665822 -0.813557
7.241427 1.688152 -0.813805
6.635408 1.804996 -0.817907
6.143690 1.914212 -0.827652
5.669652 1.995672 -0.832440
5.606682 1.304061 -0.844788
5.180398 1.405993 -0.839136
4.796620 1.491745 -0.834023
4.480487 1.576568 -0.837256
4.417244 1.024159 -0.836885
4.173868 1.129999 -0.840212
3.925487 1.217969 -0.839720
3.676193 1.293774 -0.836628
3.671809 0.846871 -0.841396
3.520294 0.950221 -0.849792
3.316715 1.028703 -0.845369
3.143421 1.105164 -0.846973
3.152790 0.723166 -0.852039
2.928446 0.787998 -0.829458
2.841957 0.880638 -0.845227
2.700538 0.949985 -0.845488
21.435060 6.637668 -0.409700
19.132774 4.422733 -0.706340
16.151109 4.358471 -0.757605
13.589849 4.201531 -0.782075
11.688714 4.082768 -0.799140
10.500103 2.421413 -0.781674
9.322253 2.510952 -0.792896
8.399530 2.591557 -0.804770
7.589115 2.647842 -0.815171
7.275636 1.672609 -0.817069
6.641873 1.784888 -0.818025
6.167543 1.900905 -0.830076
5.672007 1.976964 -0.831891
5.601977 1.284864 -0.843481
5.192322 1.392140 -0.840372
4.804003 1.477893 -0.834514
4.499252 1.567675 -0.839860
4.401192 1.006219 -0.833255
4.173521 1.116174 -0.839449
3.909536 1.199883 -0.835517
3.680145 1.282490 -0.836628
3.681052 0.837117 -0.842922
3.494962 0.931889 -0.842982
3.319855 1.018523 -0.845369
3.148627 1.096152 -0.847466
3.121039 0.705811 -0.842869
2.945765 0.782975 -0.833679
2.847404 0.872760 -0.846047
2.720647 0.947689 -0.850869
21.551877 6.601450 -0.411544
19.251484 4.387999 -0.710222
16.052431 4.279051 -0.752357
13.576895 4.151934 -0.780593
11.682322 4.040365 -0.797852
10.483168 2.383660 -0.779865
9.328950 2.482084 -0.792814
8.396965 2.562578 -0.803767
7.607547 2.628120 -0.816281
7.296245 1.653796 -0.818810
6.637720 1.761955 -0.816844
6.168602 1.880528 -0.829438
5.692091 1.964401 -0.833949
5.608788 1.268326 -0.843916
5.199433 1.376963 -0.840835
4.822671 1.467455 -0.836971
4.504041 1.553864 -0.839860
4.408096 0.993577 -0.833981
4.187366 1.106123 -0.841547
3.933824 1.194144 -0.839920
3.686835 1.272150 -0.837258
3.676936 0.824325 -0.841396
3.495921 0.920666 -0.842528
3.319245 1.007204 -0.844422
3.153808 1.087119 -0.847958
3.131684 0.698126 -0.845161
2.953751 0.775403 -0.835262
2.870321 0.870160 -0.852059
2.723542 0.939338 -0.850869
21.566287 6.533559 -0.411434
19.376985 4.354112 -0.714356
15.961150 4.202313 -0.747471
13.538915 4.094941 -0.777684
11.709769 4.009678 -0.798882
10.486539 2.350614 -0.779576
9.347124 2.456237 -0.793714
8.398113 2.534790 -0.803129
7.592982 2.597040 -0.813860
7.297404 1.630536 -0.818375
6.646937 1.742590 -0.817317
6.159148 1.857013 -0.827397
5.687780 1.943405 -0.832440
5.630035 1.254987 -0.846530
5.194075 1.358505 -0.839291
4.780863 1.438723 -0.828946
4.513447 1.541630 -0.840728
4.412083 0.980261 -0.834163
4.183141 1.091288 -0.840021
3.924331 1.178126 -0.837118
3.706450 1.266206 -0.840826
3.682307 0.813672 -0.842050
3.484591 0.906260 -0.839124
3.321389 0.996737 -0.844186
3.127777 1.067421 -0.840075
3.130033 0.687685 -0.844142
2.994398 0.776262 -0.846079
2.878505 0.863008 -0.853698
2.736395 0.934387 -0.853985
21.758630 6.519016 -0.414720
19.335612 4.282541 -0.712343
15.945929 4.146035 -0.746159
13.582982 4.062827 -0.779495
11.686101 3.961559 -0.796434
10.494675 2.318646 -0.779648
9.351722 2.426798 -0.793469
8.408713 2.509868 -0.803402
7.648973 2.590006 -0.819005
7.299459 1.607499 -0.818048
6.646484 1.720696 -0.816608
6.159114 1.836408 -0.826632
5.679641 1.921185 -0.830382
5.639657 1.238982 -0.847401
5.179086 1.337622 -0.836202
4.824966 1.435866 -0.835825
4.528417 1.531246 -0.842638
4.407384 0.965038 -0.832711
4.176963 1.076001 -0.838114
3.942955 1.170542 -0.840321
3.716800 1.257021 -0.842295
3.684786 0.802371 -0.842050
3.526973 0.905739 -0.848657
3.314185 0.983502 -0.841584
3.159501 1.067437 -0.847712
3.135909 0.678897 -0.845161
3.011716 0.770898 -0.850300
2.864539 0.849251 -0.848780
2.739249 0.925987 -0.853985
21.980803 6.512158 -0.418572
19.284219 4.209135 -0.709970
15.944061 4.093368 -0.745480
13.566659 4.012640 -0.777848
11.716176 3.931720 -0.797658
10.501739 2.286438 -0.779648
9.370708 2.401065 -0.794451
8.427835 2.487441 -0.804496
7.637073 2.559888 -0.816887
7.291728 1.582356 -0.816634
6.664239 1.703494 -0.818143
6.150449 1.813296 -0.824718
5.686447 1.904066 -0.830519
5.649233 1.222930 -0.848272
5.170719 1.318552 -0.834194
4.860579 1.430246 -0.841230
4.507879 1.508906 -0.837951
4.420899 0.953793 -0.834707
4.181196 1.063423 -0.838304
3.935247 1.155128 -0.837919
3.712295 1.242819 -0.840406
3.681505 0.789834 -0.840742
3.507079 0.889170 -0.843209
3.341427 0.980442 -0.847734
3.149893 1.053435 -0.844263
3.157838 0.673509 -0.850510
2.991623 0.755983 -0.843968
2.849592 0.835317 -0.843587
2.737529 0.916057 -0.852569
22.184904 6.498657 -0.422077
19.128018 4.113603 -0.703751
15.932336 4.038297 -0.744349
13.595198 3.975764 -0.778782
11.751859 3.903622 -0.799269
10.512606 2.255045 -0.779938
9.383828 2.373771 -0.794942
8.441162 2.463247 -0.805043
7.647724 2.537385 -0.817189
7.299464 1.560602 -0.816960
6.661731 1.681097 -0.817199
6.125513 1.785537 -0.820636
5.702605 1.890039 -0.832028
5.642315 1.203323 -0.846675
5.168992 1.301236 -0.833267
4.878205 1.419186 -0.843523
4.504073 1.492281 -0.836388
4.409376 0.937159 -0.831985
4.173966 1.047961 -0.836206
3.955709 1.147965 -0.841522
3.707738 1.228656 -0.838517
3.665768 0.774702 -0.836602
3.482392 0.871549 -0.836627
3.349085 0.971540 -0.848917
3.203714 1.060518 -0.857813
3.166513 0.665210 -0.852293
3.018261 0.752871 -0.850828
2.873391 0.832730 -0.849873
2.753072 0.911876 -0.856534
22.528382 6.524292 -0.428229
24.885536 8.190702 -0.730884
19.129795 4.052621 -0.703356
15.933021 3.986489 -0.743806
13.621719 3.938195 -0.779605
11.776104 3.871601 -0.800106
10.502885 2.219277 -0.778708
9.411372 2.350041 -0.796661
8.463032 2.441479 -0.806411
7.636568 2.507702 -0.815171
7.325618 1.542707 -0.819354
6.680347 1.664011 -0.818852
6.121431 1.763989 -0.819360
5.703671 1.870991 -0.831342
5.642107 1.185193 -0.846094
5.167207 1.283942 -0.832340
4.899601 1.409121 -0.846471
4.511438 1.479376 -0.836909
4.425705 0.926447 -0.834526
4.194312 1.039400 -0.839640
3.944144 1.131501 -0.838319
3.709632 1.216666 -0.838097
3.688193 0.767628 -0.841178
3.495450 0.863430 -0.839124
3.340843 0.958046 -0.846078
3.147087 1.031070 -0.841799
3.177062 0.657255 -0.854586
3.027113 0.745222 -0.852674
2.859287 0.819142 -0.844954
2.767704 0.907309 -0.860216
22.847232 6.540726 -0.433906
24.914349 8.115554 -0.730995
19.158768 3.997383 -0.703967
15.831704 3.909567 -0.738513
13.646218 3.899953 -0.780319
11.783181 3.833910 -0.799784
10.531126 2.191514 -0.780299
9.386604 2.313286 -0.793960
8.457076 2.411680 -0.805135
7.631925 2.480264 -0.813860
7.324476 1.519013 -0.818701
6.714350 1.650620 -0.822395
6.122045 1.743842 -0.818723
5.695252 1.848896 -0.829285
5.648623 1.168479 -0.846530
5.183596 1.271142 -0.834348
4.908646 1.395431 -0.847290
4.525322 1.468568 -0.838645
4.432379 0.913659 -0.835252
4.203203 1.027927 -0.840784
3.957023 1.122068 -0.840321
3.710557 1.204374 -0.837468
3.680970 0.754350 -0.838999
3.517952 0.857546 -0.843890
3.324135 0.942228 -0.841111
3.176971 1.030079 -0.848944
3.185697 0.648856 -0.856369
3.037821 0.737980 -0.855049
2.848829 0.806696 -0.841128
2.754967 0.893783 -0.855401
22.897977 6.479313 -0.434490
19.088714 3.921692 -0.700948
15.897976 3.874223 -0.741047
13.636979 3.852097 -0.779111
11.789189 3.795907 -0.799397
10.537801 2.159195 -0.780299
9.428520 2.292956 -0.796907
8.451974 2.382210 -0.803949
7.648023 2.459580 -0.814768
7.342737 1.499319 -0.820224
6.739647 1.634929 -0.824876
6.129276 1.725589 -0.818978
5.686751 1.826870 -0.827227
5.655090 1.151736 -0.846966
5.195154 1.257092 -0.835584
4.915753 1.381166 -0.847781
4.538245 1.457388 -0.840208
4.396611 0.892233 -0.827992
4.205382 1.014796 -0.840593
3.959503 1.109658 -0.840121
3.743092 1.202253 -0.843974
3.697617 0.745948 -0.842268
3.540452 0.851531 -0.848657
3.322332 0.930714 -0.839928
3.179194 1.020031 -0.848697
3.187672 0.639079 -0.856369
2.988481 0.716292 -0.840539
2.863333 0.801323 -0.844680
2.748564 0.882395 -0.852569
69.400367 16.720294 -0.640422
23.274979 6.508933 -0.441263
25.515081 8.138409 -0.747142
19.133959 3.869846 -0.702170
15.931155 3.830568 -0.742042
13.636231 3.806751 -0.778397
11.786516 3.755176 -0.798431
10.533621 2.124686 -0.779504
9.451985 2.267972 -0.798298
8.433341 2.349054 -0.801488
7.646052 2.433087 -0.813759
7.354125 1.478156 -0.820986
6.756220 1.617018 -0.826293
6.135496 1.707042 -0.819105
5.689497 1.808514 -0.826815
5.655687 1.133798 -0.846530
5.211479 1.244130 -0.837592
4.917115 1.365286 -0.847290
4.552081 1.446440 -0.841944
4.388721 0.876622 -0.825995
4.197971 0.999389 -0.838495
3.960056 1.096721 -0.839520
3.749558 1.191652 -0.844604
3.685529 0.731750 -0.838999
3.519358 0.835044 -0.842982
3.358883 0.929850 -0.848444
3.194317 1.014085 -0.851900
3.167797 0.624991 -0.850510
2.988787 0.706676 -0.840011
2.879685 0.796380 -0.848780
2.756743 0.875700 -0.854268
23.467344 6.485167 -0.444531
19.104576 3.802931 -0.700660
15.921448 3.776602 -0.741047
13.624744 3.758525 -0.777080
11.738973 3.700397 -0.794438
10.528350 2.090029 -0.778635
9.474416 2.242636 -0.799608
8.452030 2.326341 -0.802582
7.663919 2.412905 -0.814869
7.402508 1.464268 -0.825882
6.773713 1.599249 -0.827828
6.145486 1.689525 -0.819743
5.687460 1.788673 -0.825718
5.662050 1.117015 -0.846966
5.250854 1.236515 -0.843306
4.911767 1.347584 -0.845652
4.579045 1.439556 -0.846110
4.418407 0.868464 -0.831077
4.200062 0.986281 -0.838304
3.960567 1.083790 -0.838920
3.740139 1.176037 -0.841665
3.690630 0.721000 -0.839653
3.554144 0.831789 -0.850700
3.343913 0.914670 -0.843949
3.191865 1.002538 -0.850422
3.155460 0.612506 -0.846690
3.014425 0.702980 -0.846607
2.867268 0.783485 -0.844407
2.759416 0.867239 -0.854268
23.957817 6.541661 -0.453439
25.515873 7.966504 -0.745719
19.145575 3.750064 -0.701739
15.950468 3.731834 -0.741861
13.635248 3.716444 -0.777025
11.775993 3.672386 -0.796177
10.541564 2.059057 -0.779142
9.463783 2.209480 -0.798134
8.439909 2.295173 -0.800758
7.657037 2.384943 -0.813355
7.386474 1.437562 -0.823597
6.769883 1.576433 -0.826765
6.170741 1.676123 -0.822422
5.703324 1.774453 -0.827227
5.646997 1.096057 -0.844207
5.266171 1.223082 -0.845160
4.866367 1.319088 -0.837135
4.603188 1.431643 -0.849755
4.437464 0.858078 -0.834163
4.204025 0.973612 -0.838495
3.965765 1.072146 -0.839320
3.736260 1.162234 -0.839986
3.697617 0.710595 -0.840742
3.554782 0.820443 -0.850246
3.357021 0.907194 -0.846551
3.214362 0.998780 -0.855595
3.146876 0.600827 -0.843888
3.024088 0.695458 -0.848717
2.854799 0.770673 -0.840035
2.761148 0.858484 -0.853985
19.159934 3.691876 -0.701846
15.908305 3.670528 -0.739373
13.596450 3.661095 -0.774170
11.749060 3.624474 -0.793600
10.551750 2.027459 -0.779431
9.454977 2.176858 -0.796825
8.485380 2.279604 -0.804405
7.686186 2.368178 -0.815676
7.394755 1.415642 -0.824032
6.765978 1.553655 -0.825702
6.221835 1.669522 -0.828545
5.738090 1.765980 -0.831480
5.685319 1.085407 -0.849434
5.317089 1.217727 -0.852728
4.836086 1.294966 -0.831239
4.621678 1.421858 -0.852359
4.462296 0.848686 -0.838337
4.209863 0.961365 -0.839067
3.966196 1.059216 -0.838719
3.752891 1.154791 -0.842925
3.712246 0.701604 -0.843575
3.562030 0.810614 -0.851380
3.364482 0.898144 -0.847734
3.204442 0.984927 -0.852146
3.139201 0.589385 -0.841340
3.024326 0.685750 -0.848189
2.875740 0.766868 -0.845500
2.761019 0.849163 -0.853135
76.835387 17.516827 -0.706994
24.405209 6.503175 -0.461143
21.559609 6.586381 -0.628902
19.125023 3.624331 -0.700157
15.921440 3.622148 -0.739463
13.610512 3.620134 -0.774335
11.762989 3.589285 -0.793794
10.566741 1.996744 -0.780082
9.471330 2.150046 -0.797643
8.549122 2.268630 -0.809784
7.720063 2.352707 -0.818501
7.398086 1.392764 -0.823923
6.762964 1.531136 -0.824758
6.225969 1.650172 -0.828418
5.745376 1.748944 -0.831754
5.640974 1.059014 -0.842319
5.345857 1.207067 -0.856744
4.833360 1.278357 -0.830092
4.636382 1.410826 -0.854269
4.459079 0.833907 -0.837248
4.209919 0.947798 -0.838495
3.964690 1.045793 -0.837719
3.756416 1.143272 -0.842925
3.739329 0.694848 -0.849241
3.530290 0.792007 -0.843209
3.355948 0.884845 -0.844896
3.220430 0.979038 -0.855595
3.160013 0.583262 -0.846435
3.011354 0.673102 -0.843968
2.853893 0.751672 -0.838395
2.767281 0.841805 -0.854268
24.699647 6.500540 -0.466327
21.641913 6.538999 -0.630715
19.064334 3.552276 -0.697533
15.929553 3.572629 -0.739327
13.614795 3.576585 -0.773951
11.759615 3.548855 -0.792827
10.559089 1.961765 -0.779070
9.454539 2.115755 -0.795679
8.478015 2.221942 -0.802399
7.697715 2.320111 -0.815373
7.399393 1.369518 -0.823597
6.756000 1.507785 -0.823340
6.191663 1.620765 -0.823187
5.746921 1.730167 -0.831205
5.641277 1.041164 -0.841884
5.353393 1.191519 -0.857362
4.842987 1.265019 -0.831075
4.644461 1.397730 -0.854963
4.462583 0.820401 -0.837430
4.209932 0.934240 -0.837923
3.982102 1.037329 -0.840721
3.771141 1.135124 -0.845443
3.745284 0.684074 -0.850113
3.526998 0.779911 -0.841848
3.383094 0.880911 -0.851045
3.156593 0.949062 -0.837858
3.150370 0.571493 -0.843378
3.007753 0.662615 -0.842385
2.882253 0.749693 -0.846047
2.765259 0.831929 -0.852852
25.273957 6.568846 -0.476787
21.829481 6.522654 -0.635595
19.159681 3.509255 -0.700624
15.926783 3.520723 -0.738694
13.615072 3.532040 -0.773347
11.770447 3.512761 -0.792827
10.560152 1.928465 -0.778708
9.458067 2.086095 -0.795433
8.526247 2.206650 -0.806320
7.682867 2.289947 -0.813052
7.399647 1.346099 -0.823162
6.745077 1.483638 -0.821450
6.225414 1.609208 -0.827015
5.750303 1.711962 -0.830931
5.649313 1.024735 -0.842610
5.347373 1.172972 -0.855817
4.849711 1.250894 -0.831566
4.658166 1.386284 -0.856699
4.450564 0.804084 -0.834707
4.202230 0.919013 -0.835825
3.976726 1.022911 -0.838920
3.783040 1.126059 -0.847332
3.749286 0.672925 -0.850549
3.552211 0.774063 -0.847295
3.339670 0.858672 -0.839455
3.209655 0.954288 -0.851161
3.166388 0.564371 -0.847199
3.022026 0.656044 -0.845815
2.895720 0.743718 -0.849326
2.765041 0.822621 -0.852002
21.993187 6.498137 -0.639778
19.048396 3.428506 -0.696167
15.928725 3.469930 -0.738287
13.602630 3.484307 -0.772029
11.783082 3.477198 -0.792956
10.555220 1.894120 -0.777912
9.464422 2.057068 -0.795433
8.554203 2.185905 -0.808326
7.688902 2.266084 -0.812951
7.392978 1.321467 -0.821965
6.743774 1.461675 -0.820742
6.236088 1.591573 -0.827780
5.761230 1.695991 -0.831754
5.638794 1.004968 -0.840577
5.340323 1.154265 -0.854118
4.853526 1.236009 -0.831566
4.641612 1.365870 -0.852880
4.450105 0.789910 -0.834163
4.203110 0.905702 -0.835443
4.011183 1.018664 -0.845525
3.780849 1.112791 -0.846073
3.745566 0.660402 -0.849241
3.552665 0.762752 -0.846841
3.327221 0.844597 -0.835671
3.172585 0.932682 -0.840568
3.169058 0.554820 -0.847454
3.018365 0.645559 -0.844232
2.868150 0.727265 -0.840581
2.768471 0.814405 -0.852286
25.222571 7.368235 -0.733059
19.068665 3.371790 -0.696526
15.967620 3.427124 -0.739599
13.614224 3.442803 -0.772084
11.806149 3.444665 -0.793794
10.550177 1.859824 -0.777116
9.475561 2.029065 -0.795842
8.560869 2.159651 -0.808326
7.748353 2.257792 -0.818501
7.385248 1.296716 -0.820659
6.755996 1.442638 -0.821687
6.255368 1.576068 -0.829693
5.769259 1.679138 -0.832166
5.634053 0.986299 -0.839415
5.339974 1.137053 -0.853500
4.858251 1.221353 -0.831730
4.625923 1.345846 -0.849235
4.448632 0.775578 -0.833437
4.199148 0.891376 -0.834108
3.997183 1.002065 -0.841922
3.765469 1.095723 -0.841875
3.721610 0.644412 -0.843357
3.555941 0.752051 -0.847068
3.331682 0.834858 -0.836144
3.173570 0.922403 -0.840075
3.182181 0.547061 -0.850510
3.035433 0.639478 -0.848453
2.883432 0.721732 -0.844407
2.790296 0.811532 -0.858234
25.310364 7.309678 -0.734955
19.028705 3.304552 -0.694693
15.903781 3.362415 -0.736161
13.585971 3.391346 -0.769888
11.799403 3.403450 -0.792634
10.538143 1.824385 -0.775814
9.486617 2.001014 -0.796252
8.593545 2.139874 -0.810787
7.760023 2.235387 -0.819005
7.378416 1.272195 -0.819463
6.773022 1.424561 -0.823222
6.274612 1.560460 -0.831607
5.783903 1.664169 -0.833537
5.638028 0.969177 -0.839560
5.345372 1.121070 -0.853809
4.863890 1.206918 -0.832058
4.578922 1.316948 -0.839860
4.449052 0.761594 -0.833074
4.207628 0.879695 -0.835253
4.014504 0.993327 -0.844925
3.769753 1.084436 -0.842085
3.743775 0.636426 -0.847934
3.521048 0.733393 -0.838216
3.339886 0.826032 -0.837563
3.195946 0.918283 -0.845248
3.206729 0.541158 -0.856624
3.032658 0.629182 -0.847134
2.919251 0.721188 -0.854245
2.816737 0.809858 -0.865598
25.435519 7.261354 -0.737939
19.076188 3.252540 -0.696059
15.905218 3.311775 -0.735753
13.575953 3.344633 -0.768735
11.824183 3.371338 -0.793600
10.552541 1.793550 -0.776465
9.472219 1.967643 -0.794533
8.556551 2.102804 -0.806684
7.769715 2.212387 -0.819308
7.359742 1.245736 -0.816960
6.826951 1.414046 -0.829246
6.287076 1.543094 -0.832627
5.794698 1.648043 -0.834361
5.640975 0.951875 -0.839560
5.361364 1.107263 -0.855817
4.864696 1.191286 -0.831566
4.557364 1.295623 -0.835173
4.444579 0.746801 -0.831803
4.207423 0.866188 -0.834680
3.999449 0.976590 -0.841122
3.780585 1.075004 -0.843764
3.734158 0.623010 -0.845319
3.544270 0.726892 -0.843209
3.339573 0.815090 -0.836853
3.219259 0.914299 -0.850668
3.159719 0.523260 -0.843633
2.988266 0.610416 -0.834207
2.926123 0.713368 -0.855611
2.822898 0.802261 -0.866731
25.192151 7.108363 -0.730242
18.896833 3.162330 -0.689157
15.900626 3.259953 -0.735075
13.536668 3.290937 -0.765935
11.808537 3.327738 -0.791861
10.557993 1.761167 -0.776465
9.486999 1.940371 -0.795270
8.545542 2.072319 -0.805043
7.755397 2.182610 -0.817088
7.373335 1.224780 -0.818048
6.857528 1.398452 -0.832435
6.288888 1.523098 -0.832245
5.810216 1.633205 -0.835870
5.633131 0.932786 -0.837963
5.370545 1.091991 -0.856744
4.865451 1.175661 -0.831075
4.567006 1.283233 -0.836215
4.461404 0.735561 -0.834526
4.203326 0.851911 -0.833345
4.009094 0.965922 -0.842523
3.777277 1.061549 -0.842295
3.720642 0.609028 -0.841832
3.557939 0.718327 -0.845933
3.377009 0.813258 -0.845605
3.249109 0.912014 -0.857813
3.176582 0.516045 -0.847708
3.061994 0.615696 -0.854257
2.898370 0.697188 -0.846867
2.793953 0.784779 -0.857101
25.080964 6.993988 -0.726394
18.902502 3.103693 -0.689014
15.842984 3.197518 -0.731953
13.560294 3.252652 -0.766704
11.774470 3.279178 -0.788898
10.569252 1.729734 -0.776899
9.493885 1.911453 -0.795351
8.545081 2.044470 -0.804405
7.742887 2.153474 -0.815070
7.382945 1.203112 -0.818701
6.869575 1.378970 -0.833380
6.291602 1.503336 -0.831990
5.861011 1.628098 -0.842454
5.650616 0.917879 -0.840141
5.363213 1.073376 -0.855045
4.862318 1.159127 -0.829928
4.568075 1.268425 -0.835694
4.458785 0.721085 -0.833618
4.219397 0.841700 -0.836015
4.020617 0.955656 -0.844324
3.769211 1.046816 -0.839776
3.717674 0.596837 -0.840742
3.565858 0.708547 -0.847295
3.392722 0.806037 -0.848917
3.237883 0.898156 -0.854117
3.172420 0.505384 -0.846180
3.032643 0.600120 -0.845551
2.898623 0.687849 -0.846320
2.800968 0.777486 -0.858517
24.662859 6.795917 -0.713678
18.912921 3.045845 -0.689050
15.839982 3.146368 -0.731365
13.565351 3.209885 -0.766430
11.750799 3.233772 -0.786644
10.584357 1.698880 -0.777623
9.518280 1.885997 -0.796907
8.587173 2.026708 -0.807779
7.752335 2.130500 -0.815373
7.385620 1.180299 -0.818592
6.873773 1.357888 -0.833380
6.296185 1.484026 -0.831990
5.852605 1.606438 -0.840534
5.632886 0.897270 -0.837092
5.354849 1.054626 -0.853191
4.855288 1.141720 -0.828127
4.570995 1.254144 -0.835520
4.465833 0.708172 -0.834526
4.223886 0.829129 -0.836397
4.013037 0.940857 -0.842122
3.782777 1.038093 -0.842085
3.742626 0.589071 -0.845972
3.554633 0.694988 -0.844117
3.403693 0.797620 -0.851045
3.258383 0.893085 -0.858798
3.188287 0.497886 -0.850001
3.028789 0.589707 -0.843968
2.891353 0.676760 -0.843587
2.770970 0.760011 -0.848603
24.678771 6.718908 -0.713538
18.912307 2.986248 -0.688690
15.825050 3.092966 -0.730234
13.560550 3.164848 -0.765606
11.732739 3.190113 -0.784776
10.594446 1.667175 -0.777984
9.523043 1.856596 -0.796825
8.572983 1.995612 -0.805864
7.767476 2.109053 -0.816281
7.387242 1.157327 -0.818375
6.875957 1.336414 -0.833143
6.294912 1.463355 -0.831224
5.846034 1.585364 -0.838888
5.669827 0.885327 -0.842174
5.358059 1.038193 -0.853191
4.853001 1.125482 -0.827144
4.563415 1.237023 -0.833437
4.469928 0.694770 -0.834889
4.230265 0.816911 -0.837160
3.999677 0.924788 -0.838719
3.789718 1.027506 -0.842925
3.736699 0.576395 -0.844229
3.557705 0.684263 -0.844344
3.390978 0.783673 -0.847261
3.245205 0.878778 -0.854610
3.194579 0.488834 -0.851275
3.028689 0.580050 -0.843441
2.914036 0.672646 -0.849599
2.796430 0.757777 -0.855685
24.665482 6.634076 -0.712562
18.916441 2.927448 -0.688510
15.824654 3.042515 -0.729782
13.548788 3.118303 -0.764398
11.729942 3.150737 -0.783939
10.583739 1.632232 -0.776827
9.506182 1.823054 -0.794942
8.576154 1.968633 -0.805590
7.785441 2.088306 -0.817492
7.385845 1.133904 -0.817831
6.861493 1.311770 -0.830899
6.298405 1.443814 -0.831097
5.857568 1.569216 -0.839848
5.681319 0.869275 -0.843481
5.359278 1.021380 -0.852882
4.867972 1.113227 -0.829109
4.588118 1.228621 -0.837256
4.472038 0.681053 -0.834889
4.256861 0.808508 -0.841928
3.981480 0.907722 -0.834316
3.787186 1.014357 -0.841665
3.757750 0.567845 -0.848588
3.532994 0.668277 -0.837989
3.391471 0.772835 -0.846788
3.246013 0.868317 -0.854117
3.182675 0.477024 -0.847708
3.061736 0.576646 -0.852147
2.926404 0.666051 -0.852605
2.776507 0.743242 -0.848887
19.015247 2.883032 -0.691782
15.819190 2.991167 -0.729103
13.573871 3.080257 -0.765277
11.728943 3.111920 -0.783230
10.613351 1.603478 -0.778635
9.491163 1.790002 -0.793223
8.593807 1.944950 -0.806684
7.796620 2.065684 -0.817996
7.383391 1.110352 -0.817178
6.839136 1.285760 -0.827710
6.314414 1.427108 -0.832627
5.873845 1.554278 -0.841494
5.678088 0.850961 -0.842610
5.360444 1.004569 -0.852574
4.870402 1.098070 -0.828946
4.586153 1.213028 -0.836215
4.457572 0.664864 -0.831803
4.223618 0.788776 -0.834871
3.977555 0.893999 -0.832914
3.785554 1.001483 -0.840616
3.730511 0.552028 -0.842050
3.509175 0.652627 -0.831861
3.388138 0.761148 -0.845369
3.205558 0.846966 -0.842785
3.197519 0.469223 -0.851275
3.068233 0.568128 -0.853466
2.908723 0.652647 -0.846867
2.786192 0.736682 -0.851153
32.847126 7.363612 -0.614614
24.705724 6.482606 -0.712562
18.837171 2.796940 -0.684988
15.827310 2.942438 -0.729058
13.551101 3.031405 -0.763465
11.735539 3.075163 -0.783037
10.559023 1.562151 -0.774294
9.481910 1.758149 -0.791995
8.583212 1.914889 -0.805135
7.804845 2.042259 -0.818198
7.375944 1.086102 -0.815981
6.832308 1.262786 -0.826411
6.334252 1.411180 -0.834669
5.876670 1.535749 -0.841220
5.682630 0.833824 -0.842900
5.358642 0.987224 -0.851801
4.871821 1.082694 -0.828618
4.584136 1.197459 -0.835173
4.466402 0.652180 -0.833074
4.218294 0.774397 -0.833345
3.983148 0.882427 -0.833515
3.820772 0.998268 -0.847752
3.731221 0.540440 -0.841832
3.538944 0.646936 -0.838443
3.380971 0.748649 -0.843003
3.232524 0.843489 -0.849190
3.188414 0.457899 -0.848473
3.070910 0.558885 -0.853730
2.907894 0.643097 -0.846047
2.795862 0.730069 -0.853419
32.971096 7.285238 -0.616512
24.566800 6.365659 -0.707989
18.886211 2.745028 -0.686461
15.841177 2.894764 -0.729284
13.554488 2.988526 -0.763136
11.723664 3.033644 -0.781620
10.559817 1.529178 -0.774005
9.477455 1.727264 -0.791177
8.590991 1.888975 -0.805317
7.816854 2.019797 -0.818804
7.384162 1.064177 -0.816525
6.826379 1.240044 -0.825230
6.359864 1.396420 -0.837475
5.881354 1.517713 -0.841220
5.674389 0.814839 -0.841303
5.357757 0.970075 -0.851184
4.869339 1.066476 -0.827635
4.593509 1.184865 -0.836215
4.480064 0.640143 -0.835252
4.216786 0.760755 -0.832582
3.959992 0.864561 -0.828110
3.776480 0.974329 -0.837258
3.729963 0.528580 -0.841178
3.590757 0.645030 -0.850246
3.378506 0.737238 -0.841821
3.227588 0.831634 -0.847219
3.197465 0.449191 -0.850510
3.073560 0.549631 -0.853994
2.923951 0.637246 -0.850146
2.824092 0.728193 -0.861349
33.373322 7.266799 -0.623614
24.226931 6.198338 -0.697643
18.892566 2.686792 -0.686390
15.802787 2.837676 -0.727112
13.534321 2.940568 -0.761489
11.709711 2.991734 -0.780074
10.575321 1.498312 -0.774801
9.476823 1.697125 -0.790686
8.610371 1.865561 -0.806593
7.830726 1.997774 -0.819611
7.387391 1.041517 -0.816525
6.825264 1.218223 -0.824639
6.374782 1.379208 -0.838878
5.883103 1.498928 -0.840808
5.673922 0.797014 -0.840867
5.360708 0.953633 -0.851184
4.865837 1.050076 -0.826489
4.586625 1.168093 -0.834305
4.513173 0.630751 -0.841060
4.222000 0.748328 -0.833154
3.979867 0.856116 -0.831713
3.784189 0.963945 -0.838307
3.736401 0.517804 -0.842268
3.545724 0.625717 -0.839124
3.391201 0.729116 -0.844422
3.256424 0.828418 -0.854117
3.181583 0.437011 -0.845925
3.067631 0.538864 -0.851883
2.886392 0.619790 -0.838669
2.826312 0.719525 -0.861349
33.889143 7.270287 -0.632832
24.254555 6.126185 -0.697894
18.897751 2.628405 -0.686282
15.793710 2.786056 -0.726298
13.515940 2.893179 -0.759952
11.710126 2.953598 -0.779495
10.602591 1.469009 -0.776465
9.486894 1.668906 -0.791095
8.599498 1.835602 -0.805043
7.833924 1.973011 -0.819308
7.391537 1.018984 -0.816634
6.829947 1.197449 -0.824758
6.382863 1.360471 -0.839388
5.882870 1.479664 -0.840122
5.655756 0.776776 -0.837818
5.363609 0.937182 -0.851184
4.841053 1.029194 -0.821739
4.589232 1.153776 -0.834132
4.502420 0.615171 -0.838700
4.240716 0.738234 -0.836397
3.993977 0.846339 -0.834115
3.803248 0.956384 -0.841875
3.745709 0.507386 -0.844011
3.550506 0.615335 -0.839805
3.405778 0.721325 -0.847497
3.228870 0.810870 -0.846234
3.155115 0.423517 -0.838539
3.076874 0.530762 -0.853994
2.880751 0.609339 -0.836482
2.798743 0.703370 -0.852286
34.269319 7.241944 -0.639514
24.505047 6.109539 -0.704559
18.895823 2.569068 -0.685922
15.800215 2.737248 -0.726208
13.534523 2.853760 -0.760501
11.721069 2.918140 -0.779623
10.610013 1.436875 -0.776682
9.497861 1.640811 -0.791586
8.564159 1.800605 -0.801214
7.836078 1.948007 -0.818905
7.393643 0.996170 -0.816525
6.839460 1.177500 -0.825466
6.387978 1.341086 -0.839516
5.898919 1.464472 -0.841769
5.670861 0.761131 -0.839705
5.367432 0.920889 -0.851338
4.884741 1.022828 -0.828618
4.593706 1.139928 -0.834305
4.482842 0.598492 -0.834707
4.248767 0.726212 -0.837541
4.009023 0.836684 -0.836718
3.807113 0.944947 -0.842085
3.741442 0.495124 -0.842704
3.574459 0.608197 -0.845025
3.410829 0.711468 -0.848207
3.252039 0.806090 -0.851654
3.172699 0.415972 -0.842869
3.070880 0.520031 -0.851883
2.892965 0.602656 -0.839488
2.801818 0.695012 -0.852569
24.254803 5.968171 -0.696834
18.931354 2.514769 -0.686929
15.804599 2.688091 -0.726027
13.510952 2.805524 -0.758689
11.720276 2.879786 -0.778979
10.629203 1.406280 -0.777767
9.464528 1.605165 -0.788394
8.555015 1.771294 -0.799847
7.833321 1.921824 -0.817996
7.403564 0.974390 -0.817287
6.871435 1.161310 -0.828891
6.381378 1.319273 -0.838113
5.915891 1.449432 -0.843552
5.690828 0.746045 -0.842319
5.366335 0.903761 -0.850720
4.895586 1.009431 -0.829928
4.574225 1.120207 -0.830139
4.471005 0.582956 -0.832166
4.249039 0.712849 -0.837160
4.047080 0.831678 -0.844124
3.819491 0.935588 -0.844184
3.742944 0.483643 -0.842704
3.579190 0.597709 -0.845706
3.397768 0.697873 -0.844422
3.228136 0.789661 -0.844756
3.196981 0.409183 -0.848982
3.100055 0.515193 -0.859534
2.944744 0.604022 -0.853972
2.818842 0.690061 -0.857101
24.214716 5.879578 -0.695161
18.966729 2.460276 -0.687935
15.850215 2.645840 -0.727746
13.496018 2.759259 -0.757371
11.733905 2.844991 -0.779301
10.634456 1.373791 -0.777840
9.462527 1.574975 -0.787821
8.582852 1.749614 -0.801944
7.832412 1.896144 -0.817290
7.394686 0.950151 -0.815981
6.895538 1.143635 -0.831372
6.341660 1.290787 -0.832372
5.927050 1.432905 -0.844512
5.706829 0.730340 -0.844352
5.361284 0.886005 -0.849485
4.912194 0.997154 -0.832221
4.599657 1.111489 -0.834132
4.463017 0.567995 -0.830351
4.242489 0.698375 -0.835443
4.010240 0.811292 -0.835917
3.835649 0.927082 -0.847123
3.729886 0.470326 -0.839435
3.578124 0.586253 -0.845025
3.417987 0.691104 -0.848917
3.217354 0.776570 -0.841307
3.203979 0.400092 -0.850510
3.074013 0.501179 -0.851883
2.922067 0.590035 -0.846867
2.824675 0.682311 -0.858234
24.160705 5.788028 -0.693097
18.930565 2.396553 -0.686354
15.821782 2.591226 -0.726072
13.501483 2.717250 -0.757207
11.750342 2.810836 -0.779817
10.661380 1.344028 -0.779504
9.468298 1.546098 -0.787903
8.615518 1.728759 -0.804496
7.833354 1.870950 -0.816786
7.406444 0.928573 -0.816960
6.886273 1.120402 -0.829836
6.337810 1.269767 -0.831352
5.937199 1.416093 -0.845335
5.689407 0.710377 -0.841448
5.354225 0.867971 -0.847940
4.917165 0.982466 -0.832549
4.614540 1.100113 -0.836215
4.464739 0.554300 -0.830351
4.243642 0.685199 -0.835253
4.033850 0.803195 -0.840321
3.847034 0.917351 -0.849012
3.743904 0.460429 -0.842268
3.562597 0.572491 -0.840940
3.422950 0.681183 -0.849626
3.218779 0.766471 -0.841060
3.199431 0.389559 -0.848982
3.084109 0.493116 -0.854257
2.904051 0.577130 -0.841128
2.834218 0.675420 -0.860500
24.108306 5.697324 -0.691089
18.927910 2.337239 -0.685994
15.789217 2.536178 -0.724217
13.508776 2.675621 -0.757152
11.759882 2.775002 -0.779881
10.660505 1.310704 -0.779142
9.474965 1.517357 -0.788067
8.597334 1.697689 -0.802308
7.811942 1.840521 -0.813960
7.416165 0.906690 -0.817722
6.868104 1.095828 -0.827238
6.336810 1.249357 -0.830714
5.974299 1.405585 -0.850000
5.701381 0.694114 -0.842900
5.356862 0.851541 -0.847940
4.896925 0.962808 -0.828618
4.629398 1.088656 -0.838298
4.453727 0.539064 -0.827992
4.246694 0.672330 -0.835443
4.036295 0.790815 -0.840321
3.850782 0.905768 -0.849221
3.757896 0.450451 -0.845101
3.567223 0.562013 -0.841621
3.416442 0.668998 -0.847497
3.217341 0.755705 -0.840075
3.215016 0.381450 -0.852803
3.071313 0.481411 -0.850300
2.928465 0.572648 -0.847686
2.833476 0.666063 -0.859650
24.040977 5.603592 -0.688663
18.945905 2.280472 -0.686390
15.843304 2.495029 -0.726343
13.517901 2.634355 -0.757207
11.771255 2.739589 -0.780074
10.674379 1.279179 -0.779865
9.478591 1.488127 -0.787985
8.595659 1.669975 -0.801670
7.800109 1.812492 -0.812144
7.420886 0.884169 -0.817939
6.889093 1.077514 -0.829364
6.355219 1.232743 -0.832627
5.991127 1.390160 -0.851783
5.678921 0.673706 -0.839270
5.366283 0.836167 -0.849021
4.910510 0.949840 -0.830420
4.642310 1.076673 -0.840034
4.492471 0.529774 -0.834889
4.234186 0.657040 -0.832582
4.034854 0.777686 -0.839520
3.845923 0.892182 -0.847542
3.752475 0.438128 -0.843575
3.588180 0.554039 -0.846160
3.366004 0.648405 -0.834488
3.221533 0.746269 -0.840568
3.190234 0.368588 -0.845925
3.094703 0.475355 -0.856368
2.941543 0.565841 -0.850966
2.831769 0.656501 -0.858517
23.960633 5.507417 -0.685875
18.976634 2.225129 -0.687252
15.866681 2.448849 -0.727067
13.531803 2.593999 -0.757536
11.781551 2.703908 -0.780203
10.690140 1.247812 -0.780734
9.490992 1.460252 -0.788640
8.595852 1.642662 -0.801214
7.801754 1.787664 -0.811741
7.413689 0.860252 -0.816851
6.879607 1.054417 -0.827828
6.348254 1.211195 -0.831224
5.998260 1.372435 -0.852195
5.678013 0.655939 -0.838834
5.370777 0.819998 -0.849330
4.917277 0.935508 -0.831075
4.635991 1.060230 -0.838298
4.474536 0.513745 -0.831259
4.262385 0.648031 -0.837732
4.052623 0.768224 -0.842723
3.839111 0.878199 -0.845443
3.758650 0.427164 -0.844665
3.581197 0.541717 -0.844117
3.389934 0.642235 -0.839928
3.264435 0.745662 -0.851161
3.202882 0.360096 -0.848982
3.100916 0.466575 -0.857687
2.937594 0.555741 -0.849326
2.831900 0.647382 -0.857951
18.987342 2.167352 -0.687396
15.860291 2.398068 -0.726434
13.546567 2.553766 -0.757920
11.790763 2.667971 -0.780267
10.704819 1.216248 -0.781529
9.494442 1.430979 -0.788558
8.597915 1.615731 -0.800941
7.810113 1.764378 -0.812043
7.437037 0.839845 -0.819136
6.889683 1.034338 -0.828655
6.347066 1.190799 -0.830586
5.996645 1.352719 -0.851372
5.679015 0.638406 -0.838689
5.387924 0.805708 -0.851647
4.921094 0.920599 -0.831239
4.630576 1.044052 -0.836736
4.497592 0.502417 -0.835252
4.264353 0.634951 -0.837732
4.042439 0.753453 -0.840121
3.840834 0.866201 -0.845233
3.745392 0.414022 -0.841396
3.591512 0.532012 -0.846160
3.385202 0.630587 -0.838273
3.276163 0.737773 -0.853625
3.212623 0.351213 -0.851275
3.088973 0.455092 -0.853994
2.904294 0.540218 -0.839215
2.846971 0.641643 -0.861916
24.226159 5.412164 -0.692512
19.015754 2.111516 -0.688187
15.862632 2.348667 -0.726208
13.568083 2.514741 -0.758689
11.791101 2.630047 -0.779752
10.769963 1.190192 -0.786015
9.529352 1.406355 -0.791095
8.596955 1.588260 -0.800394
7.855304 1.749275 -0.816180
7.454400 0.818653 -0.820768
6.908543 1.015507 -0.830545
6.355566 1.172220 -0.831224
5.987230 1.331305 -0.849451
5.678980 0.620765 -0.838399
5.396236 0.790033 -0.852574
4.931657 0.906925 -0.832549
4.623182 1.027491 -0.834826
4.490314 0.487660 -0.833618
4.282794 0.624272 -0.840975
4.085208 0.748463 -0.848528
3.848245 0.855474 -0.846283
3.760230 0.403989 -0.844447
3.576743 0.518615 -0.842302
3.402413 0.622998 -0.842057
3.301118 0.732758 -0.859537
3.199261 0.339824 -0.847454
3.038801 0.438179 -0.839747
2.935272 0.536668 -0.847686
2.832074 0.629162 -0.856818
23.996640 5.283647 -0.685484
19.023137 2.053274 -0.688223
15.865808 2.299417 -0.726027
13.560999 2.470419 -0.757865
11.785470 2.590860 -0.778850
10.778522 1.157678 -0.786377
9.549405 1.379392 -0.792405
8.596888 1.560987 -0.799938
7.854803 1.723887 -0.815575
7.465773 0.796728 -0.821747
6.903763 0.993175 -0.829600
6.354253 1.151832 -0.830586
5.919685 1.297239 -0.839299
5.667084 0.601876 -0.836366
5.405481 0.774455 -0.853655
4.942182 0.893194 -0.833859
4.645552 1.017516 -0.838298
4.488855 0.473573 -0.833074
4.291492 0.612100 -0.842310
4.078807 0.734364 -0.846726
3.855627 0.844710 -0.847332
3.756598 0.391945 -0.843357
3.548425 0.503399 -0.835265
3.405264 0.612729 -0.842294
3.278734 0.717242 -0.853132
3.217603 0.331792 -0.852039
3.064009 0.432222 -0.846343
2.948266 0.529701 -0.850966
2.847107 0.623342 -0.860783
23.989292 5.204914 -0.684815
18.946852 1.986254 -0.685239
15.880700 2.251852 -0.726389
13.544926 2.424580 -0.756548
11.779709 2.551733 -0.777949
10.764168 1.122742 -0.785075
9.564447 1.351622 -0.793305
8.640851 1.541601 -0.803585
7.869779 1.701884 -0.816584
7.460272 0.773000 -0.820877
6.906777 0.971990 -0.829600
6.360686 1.132853 -0.830969
5.908145 1.275727 -0.837104
5.680714 0.585704 -0.838108
5.401961 0.757045 -0.852728
4.950727 0.879062 -0.834842
4.642876 1.002012 -0.837256
4.489308 0.459699 -0.832892
4.258349 0.594048 -0.835443
4.056921 0.717581 -0.841722
3.863935 0.834115 -0.848592
3.730595 0.377665 -0.837256
3.580822 0.496793 -0.842528
3.429134 0.606169 -0.847734
3.243970 0.699216 -0.843524
3.210908 0.321149 -0.850001
3.094942 0.426906 -0.854521
2.940404 0.518982 -0.848233
2.828381 0.610155 -0.854552
19.044325 1.937422 -0.688546
15.888525 2.203258 -0.726434
13.544433 2.381630 -0.756109
11.807977 2.519955 -0.779301
10.804277 1.093428 -0.787752
9.575460 1.323228 -0.793878
8.655350 1.516803 -0.804496
7.855502 1.673586 -0.814566
7.470521 0.750904 -0.821747
6.897922 0.949172 -0.828183
6.382695 1.116581 -0.833393
5.924627 1.260274 -0.838888
5.666732 0.566698 -0.835785
5.403279 0.740334 -0.852574
4.952429 0.863700 -0.834678
4.657488 0.990221 -0.839340
4.494612 0.446312 -0.833618
4.279605 0.583634 -0.839258
4.062965 0.705802 -0.842523
3.837785 0.816156 -0.842295
3.729793 0.366028 -0.836820
3.588120 0.486590 -0.843890
3.397472 0.589829 -0.839455
3.266957 0.693689 -0.848944
3.208028 0.310924 -0.848982
3.049397 0.411094 -0.841594
2.938191 0.509301 -0.847140
2.830240 0.601475 -0.854552
19.059130 1.879868 -0.688870
15.898179 2.154904 -0.726569
13.553644 2.340405 -0.756219
11.797097 2.479816 -0.778077
10.804603 1.059984 -0.787535
9.595277 1.295979 -0.795188
8.656036 1.489566 -0.804132
7.853784 1.648047 -0.813860
7.488620 0.729524 -0.823488
6.901786 0.928137 -0.828301
6.391955 1.098001 -0.834158
5.912953 1.238842 -0.836693
5.686170 0.551028 -0.838399
5.399649 0.722967 -0.851647
4.966723 0.850500 -0.836644
4.661468 0.976129 -0.839513
4.509664 0.433839 -0.836159
4.294025 0.572187 -0.841738
4.068008 0.693827 -0.843123
3.839315 0.804177 -0.842085
3.727984 0.354306 -0.836166
3.563528 0.472126 -0.837762
3.448114 0.587729 -0.851518
3.231123 0.675727 -0.839090
3.238813 0.303880 -0.856878
3.037255 0.399973 -0.837900
2.935947 0.499639 -0.846047
2.828317 0.592003 -0.853419
130.639871 12.536114 0.089332
23.681859 4.910434 -0.674720
18.975275 1.812833 -0.685635
15.902735 2.105857 -0.726479
13.549931 2.296976 -0.755615
11.802695 2.443207 -0.777949
10.834613 1.029378 -0.789488
9.596243 1.266144 -0.794942
8.670385 1.464662 -0.805043
7.855881 1.623340 -0.813557
7.481916 0.705705 -0.822509
6.906570 0.907217 -0.828537
6.396272 1.078551 -0.834286
5.907995 1.218894 -0.835458
5.697685 0.534505 -0.839851
5.408699 0.707295 -0.852728
4.965418 0.834604 -0.835989
4.652867 0.959437 -0.837430
4.514891 0.420366 -0.836885
4.304521 0.560151 -0.843454
4.099107 0.686197 -0.849128
3.833145 0.790617 -0.840196
3.729053 0.342867 -0.836166
3.594901 0.465064 -0.844798
3.439360 0.575384 -0.848917
3.242674 0.667766 -0.841553
3.206986 0.290972 -0.848218
3.113090 0.400248 -0.858479
2.938414 0.490788 -0.846320
2.840453 0.585453 -0.856534
23.972027 4.893941 -0.682556
18.948903 1.751666 -0.684484
15.924972 2.059108 -0.727203
13.600253 2.262605 -0.758030
11.772979 2.399413 -0.775501
10.846659 0.996954 -0.790139
9.607990 1.237716 -0.795597
8.692522 1.440986 -0.806684
7.861799 1.599430 -0.813658
7.473156 0.681754 -0.821312
6.893562 0.884003 -0.826647
6.404444 1.059732 -0.834924
5.920443 1.202537 -0.836693
5.699298 0.517022 -0.839851
5.414764 0.691198 -0.853346
4.966982 0.819206 -0.835825
4.646137 0.943198 -0.835694
4.500488 0.405102 -0.833981
4.305245 0.546818 -0.843264
4.073156 0.669012 -0.843323
3.839386 0.779632 -0.841036
3.726199 0.331080 -0.835294
3.521911 0.444640 -0.827321
3.451656 0.566560 -0.851518
3.271303 0.663206 -0.848451
3.197268 0.280203 -0.845416
3.055923 0.383371 -0.842385
2.927566 0.479748 -0.842768
2.839415 0.576163 -0.855685
23.906567 4.804224 -0.680269
19.027846 1.700104 -0.687144
15.930222 2.010116 -0.727158
13.613043 2.221834 -0.758360
11.824314 2.372115 -0.778400
10.885431 0.966849 -0.792744
9.620642 1.209352 -0.796334
8.708696 1.416229 -0.807779
7.856914 1.573349 -0.812649
7.469271 0.658300 -0.820659
6.935654 0.867781 -0.831372
6.418434 1.041826 -0.836327
5.930904 1.185727 -0.837653
5.678188 0.497548 -0.836511
5.412938 0.674094 -0.852728
4.958760 0.802231 -0.834023
4.685706 0.936273 -0.842291
4.497791 0.390952 -0.833255
4.299109 0.532642 -0.841738
4.071320 0.655890 -0.842523
3.840801 0.767657 -0.840826
3.749562 0.321564 -0.840307
3.653750 0.449901 -0.857963
3.434192 0.552879 -0.846788
3.312291 0.660942 -0.858552
3.223165 0.272510 -0.852039
3.085807 0.377507 -0.850300
2.946119 0.473512 -0.847686
2.837408 0.566698 -0.854552
23.705458 4.688191 -0.674134
18.890593 1.629439 -0.682004
15.933341 1.960867 -0.727022
13.596133 2.176272 -0.757042
11.825661 2.334668 -0.778013
10.862509 0.931234 -0.790863
9.646071 1.182498 -0.798134
8.727751 1.391857 -0.809146
7.895868 1.555969 -0.816180
7.468284 0.635129 -0.820333
6.927441 0.845176 -0.830072
6.432374 1.023845 -0.837730
5.945205 1.169629 -0.839162
5.669828 0.479292 -0.835059
5.427731 0.659032 -0.854736
4.956326 0.786241 -0.833204
4.671163 0.918473 -0.839166
4.500929 0.377316 -0.833618
4.277334 0.516625 -0.837160
4.052022 0.640033 -0.838119
3.841219 0.755493 -0.840406
3.750531 0.310059 -0.840307
3.625137 0.435091 -0.850927
3.432993 0.541886 -0.846078
3.261997 0.640507 -0.845002
3.228805 0.263013 -0.853312
3.066838 0.365641 -0.844760
2.946608 0.464322 -0.847413
2.842897 0.558730 -0.855685
23.734447 4.618305 -0.674552
19.116596 1.589863 -0.689984
15.924403 1.910190 -0.726343
13.627406 2.138419 -0.758415
11.834727 2.298757 -0.778142
10.873267 0.898561 -0.791441
9.658560 1.153963 -0.798871
8.741820 1.366612 -0.810058
7.906464 1.532874 -0.816786
7.479114 0.612944 -0.821312
6.926057 0.823450 -0.829600
6.461945 1.008234 -0.841174
5.947793 1.151196 -0.839025
5.663383 0.461252 -0.833897
5.415991 0.640752 -0.852574
4.959689 0.771183 -0.833368
4.680727 0.905447 -0.840381
4.513828 0.364455 -0.835796
4.287673 0.504532 -0.838877
4.069459 0.629997 -0.841322
3.873276 0.749463 -0.846913
3.745627 0.298087 -0.838999
3.597436 0.420575 -0.844117
3.434639 0.531352 -0.846078
3.262043 0.630128 -0.844509
3.192963 0.250235 -0.843633
3.056447 0.354895 -0.841594
2.926153 0.451902 -0.841128
2.854956 0.552008 -0.858800
23.514837 4.500743 -0.667915
18.949048 1.517406 -0.683766
15.963925 1.865268 -0.727882
13.637850 2.097208 -0.758634
11.837804 2.261688 -0.777884
10.915742 0.868361 -0.794335
9.671954 1.125477 -0.799690
8.765658 1.342802 -0.811881
7.906244 1.507678 -0.816281
7.499788 0.591481 -0.823379
6.923619 0.801626 -0.829009
6.464027 0.988255 -0.841047
5.951297 1.132943 -0.839025
5.662799 0.443720 -0.833607
5.421857 0.624585 -0.853191
4.962032 0.755963 -0.833368
4.686386 0.891634 -0.840902
4.513944 0.350529 -0.835615
4.301879 0.492828 -0.841356
4.068466 0.617068 -0.840721
3.897649 0.741780 -0.851740
3.750417 0.286892 -0.839871
3.592903 0.408875 -0.842755
3.433371 0.520375 -0.845369
3.340133 0.634589 -0.864218
3.213965 0.241962 -0.848982
3.057522 0.345516 -0.841594
2.933232 0.443786 -0.842768
2.873595 0.546472 -0.863899
23.413599 4.406947 -0.664653
18.866927 1.452590 -0.680638
15.931853 1.811993 -0.726162
13.651132 2.056399 -0.759018
11.842725 2.224991 -0.777755
