x      y      z
2.363768 -2.479609 0.934741
1.854048 -2.445638 0.809714
1.989000 -2.428534 0.794196
2.150770 -2.436061 0.788754
2.347467 -2.468022 0.792005
1.847007 -2.434850 0.685198
1.978539 -2.416880 0.667614
2.138652 -2.424126 0.658166
2.322463 -2.445065 0.653487
1.837905 -2.422851 0.564398
1.966858 -2.403296 0.545020
2.125793 -2.410822 0.532453
2.283206 -2.407351 0.517491
1.815269 -2.392750 0.443665
1.941033 -2.373346 0.422662
2.110450 -2.395950 0.409132
2.282541 -2.409175 0.393505
1.813632 -2.390592 0.331916
1.956978 -2.394377 0.311223
2.119993 -2.408564 0.292802
2.282165 -2.411137 0.271489
1.819907 -2.401038 0.222252
1.957439 -2.395624 0.198538
2.113572 -2.402959 0.174998
2.282063 -2.413560 0.150136
1.854845 -2.464046 0.942683
1.998000 -2.454848 0.930119
2.163921 -2.462435 0.928174
2.349515 -2.479845 0.932109
1.842464 -2.445909 0.807928
1.987048 -2.441392 0.796403
2.142645 -2.441917 0.788518
2.321818 -2.456102 0.785890
1.825432 -2.421804 0.679948
1.976669 -2.429766 0.669495
2.122806 -2.421097 0.655573
2.306864 -2.443612 0.651204
1.821586 -2.416701 0.561660
1.952018 -2.400149 0.542945
2.113835 -2.412139 0.531309
2.266999 -2.404998 0.515487
1.803751 -2.392779 0.442642
1.928120 -2.372371 0.421433
2.098516 -2.397189 0.408243
2.262204 -2.402430 0.391268
1.802699 -2.391383 0.331257
1.942096 -2.391102 0.310021
2.108660 -2.410559 0.292257
2.274074 -2.417401 0.271407
1.808932 -2.401831 0.221810
1.941274 -2.390772 0.197642
2.100933 -2.403418 0.174561
2.261650 -2.406718 0.149278
1.840976 -2.461301 0.939468
1.986235 -2.455744 0.928145
2.151293 -2.463265 0.925994
2.337928 -2.482828 0.930530
1.825681 -2.439164 0.803846
1.977719 -2.445215 0.795667
2.130672 -2.443353 0.786867
2.300267 -2.448307 0.781134
1.801615 -2.405524 0.673822
1.952606 -2.415286 0.663851
2.109575 -2.420950 0.653777
2.285921 -2.436359 0.647399
1.804144 -2.408900 0.558558
1.941550 -2.402296 0.542081
2.093466 -2.403734 0.528040
2.256908 -2.409057 0.514871
1.796402 -2.398301 0.442642
1.922700 -2.380587 0.421843
2.085943 -2.397629 0.407226
2.250073 -2.404284 0.390444
1.791779 -2.392129 0.330597
1.929127 -2.390080 0.309120
2.096681 -2.411756 0.291621
2.260520 -2.417814 0.270674
1.795579 -2.399384 0.221075
1.925156 -2.385843 0.196745
2.080452 -2.394777 0.173469
2.250164 -2.409265 0.149007
1.825430 -2.456192 0.935376
1.981697 -2.465566 0.929555
2.141203 -2.466947 0.924905
2.313819 -2.472379 0.923949
1.814150 -2.439323 0.802060
1.965957 -2.445982 0.793950
2.118711 -2.444737 0.785216
2.288091 -2.450369 0.779549
1.802382 -2.421999 0.676885
1.934162 -2.407543 0.660089
2.095081 -2.419263 0.651583
2.279775 -2.444797 0.647779
1.787353 -2.401804 0.555639
1.933554 -2.407474 0.541908
2.084145 -2.407907 0.527550
2.246140 -2.412354 0.514100
1.783720 -2.396659 0.441327
1.910427 -2.380294 0.420750
2.072738 -2.397264 0.406082
2.236600 -2.404631 0.389384
1.782058 -2.394426 0.330157
1.918050 -2.391331 0.308519
2.081459 -2.409134 0.290530
2.246986 -2.418167 0.269940
1.782854 -2.397679 0.220412
1.913458 -2.386288 0.196297
2.067223 -2.394346 0.172978
2.240723 -2.413960 0.148872
1.811637 -2.453318 0.932160
1.966938 -2.462638 0.926172
2.126083 -2.464761 0.921635
2.294396 -2.466751 0.919211
1.804933 -2.442544 0.801295
1.952393 -2.444427 0.791498
2.102322 -2.440917 0.781914
2.273274 -2.449524 0.777057
1.796684 -2.429871 0.677541
1.951172 -2.444035 0.668450
2.079979 -2.416766 0.649188
2.261587 -2.440259 0.644736
1.777053 -2.403323 0.554726
1.921243 -2.407236 0.540525
2.070957 -2.407559 0.526079
2.230004 -2.409806 0.512097
1.771653 -2.395757 0.440158
1.898791 -2.380723 0.419794
2.054385 -2.390823 0.403921
2.220448 -2.402002 0.387853
1.762884 -2.383899 0.327958
1.903262 -2.387867 0.307317
2.066922 -2.407198 0.289531
2.231442 -2.416262 0.268962
1.773119 -2.399929 0.220118
1.896177 -2.379660 0.195272
2.054666 -2.394615 0.172541
2.229243 -2.416418 0.148601
1.799576 -2.452696 0.929822
1.955199 -2.463400 0.924198
2.105987 -2.456663 0.916187
2.271756 -2.457485 0.913156
1.787703 -2.434821 0.796958
1.936447 -2.439774 0.788064
2.090400 -2.442188 0.780263
2.260466 -2.450759 0.775246
1.781132 -2.424363 0.674478
1.924824 -2.426260 0.661970
2.069370 -2.419413 0.648191
2.254089 -2.447186 0.644736
1.770254 -2.409556 0.554909
1.904669 -2.401543 0.537932
2.065484 -2.416151 0.526569
2.216581 -2.410091 0.510710
1.760194 -2.395601 0.439135
1.887786 -2.381879 0.418975
2.046396 -2.396361 0.403794
2.204335 -2.399296 0.386323
1.754973 -2.388495 0.327848
1.892838 -2.389795 0.306817
2.052416 -2.405195 0.288531
2.224019 -2.423097 0.268962
1.754535 -2.390083 0.218720
1.883292 -2.378425 0.194696
2.041478 -2.394069 0.172050
2.205616 -2.405574 0.147517
1.787536 -2.452023 0.927484
1.941690 -2.461854 0.921379
2.090328 -2.453591 0.912645
2.257678 -2.457339 0.910524
1.775666 -2.434045 0.794917
1.926551 -2.442659 0.787083
2.084787 -2.450810 0.780971
2.250304 -2.454810 0.774340
1.736291 -2.378587 0.660258
1.902841 -2.413723 0.656954
2.055591 -2.418284 0.646196
2.233976 -2.440331 0.641121
1.761694 -2.413387 0.554544
1.897292 -2.407375 0.537932
2.050397 -2.413454 0.524608
2.199844 -2.406670 0.508553
1.747587 -2.393799 0.437820
1.873115 -2.378320 0.417336
2.030691 -2.392796 0.402142
2.190268 -2.398715 0.385145
1.742949 -2.387446 0.326969
1.884882 -2.394809 0.306716
2.043739 -2.409961 0.288349
2.211201 -2.424018 0.268310
1.744843 -2.392232 0.218426
1.872901 -2.380270 0.194375
2.019922 -2.383562 0.170849
2.196207 -2.410114 0.147382
1.776078 -2.452074 0.925437
1.928210 -2.460248 0.918559
2.075330 -2.451180 0.909376
2.242973 -2.456417 0.907628
1.765920 -2.436349 0.793897
1.909480 -2.436350 0.783158
2.069729 -2.448289 0.778140
2.242762 -2.461703 0.774340
1.757630 -2.423398 0.671197
1.896030 -2.420319 0.657163
2.046898 -2.423082 0.645797
2.208640 -2.427567 0.635984
1.749086 -2.411617 0.552902
1.882610 -2.403880 0.535858
2.042983 -2.419733 0.524608
2.190457 -2.411214 0.508090
1.730941 -2.386336 0.435482
1.863367 -2.380935 0.416790
2.014387 -2.388400 0.400363
2.177559 -2.399540 0.384203
1.731531 -2.387150 0.326199
1.873849 -2.395878 0.306116
2.028635 -2.407082 0.287259
2.196390 -2.422668 0.267413
1.738666 -2.399189 0.218573
1.861901 -2.381288 0.193991
2.010670 -2.387457 0.170685
2.183438 -2.410917 0.147021
1.763519 -2.450526 0.922807
1.914758 -2.458583 0.915740
2.064703 -2.453855 0.908014
2.229591 -2.456857 0.905259
1.755612 -2.437832 0.792621
1.897826 -2.436842 0.781442
2.062833 -2.455371 0.778376
2.226046 -2.458463 0.771169
1.749616 -2.427987 0.670978
1.883189 -2.419180 0.655282
2.033153 -2.421845 0.643802
2.198548 -2.431419 0.635223
1.739380 -2.413782 0.552172
1.870386 -2.403426 0.534475
2.020965 -2.408607 0.520849
2.181724 -2.416456 0.507782
1.720719 -2.387622 0.434751
1.848756 -2.377257 0.415151
2.002590 -2.389247 0.399473
2.160876 -2.395885 0.382555
1.716063 -2.381162 0.324660
1.859163 -2.392189 0.304914
2.016125 -2.407187 0.286532
2.183610 -2.423472 0.266761
1.731880 -2.405321 0.218647
1.852750 -2.384625 0.193799
1.999491 -2.389020 0.170357
2.175362 -2.416862 0.146975
1.752099 -2.450479 0.920761
1.905444 -2.462169 0.914894
2.055313 -2.457963 0.907197
2.216874 -2.457955 0.903153
1.743624 -2.436916 0.790581
1.883221 -2.433453 0.778498
2.046571 -2.451245 0.775074
2.210675 -2.456593 0.768451
1.730798 -2.417475 0.666603
1.870373 -2.417984 0.653400
2.023203 -2.425062 0.643004
2.185172 -2.431581 0.633511
1.723953 -2.407914 0.549617
1.853966 -2.397465 0.531882
1.998402 -2.396611 0.516927
2.169022 -2.417255 0.506549
1.712234 -2.391282 0.434459
1.836608 -2.376647 0.414058
1.985093 -2.383186 0.397439
2.152853 -2.401764 0.382437
1.707014 -2.383991 0.324330
1.847558 -2.392369 0.304213
2.002360 -2.405707 0.285623
2.172175 -2.425705 0.266272
1.716949 -2.400079 0.217690
1.844206 -2.388718 0.193671
1.987044 -2.389001 0.169920
2.161277 -2.416079 0.146524
1.738481 -2.447267 0.917545
1.892618 -2.461158 0.912357
2.032389 -2.445757 0.900386
2.202884 -2.457561 0.900521
1.734458 -2.439890 0.789815
1.875156 -2.438451 0.778253
2.035939 -2.453773 0.773894
2.197933 -2.457555 0.766639
1.721111 -2.419594 0.665727
1.861158 -2.421385 0.652773
2.012626 -2.427486 0.642006
2.176394 -2.436809 0.633131
1.706299 -2.398771 0.546332
1.835200 -2.388303 0.528598
1.977192 -2.386019 0.513331
2.155677 -2.417261 0.505162
1.702596 -2.393299 0.433874
1.823275 -2.374413 0.412693
1.972080 -2.382388 0.396295
2.141511 -2.403909 0.381731
1.697963 -2.386787 0.324000
1.838998 -2.396447 0.304013
1.993065 -2.409537 0.285350
2.159422 -2.426401 0.265620
1.706111 -2.400457 0.217249
1.832616 -2.388822 0.193223
1.967618 -2.380463 0.168883
2.142571 -2.410006 0.145756
1.727105 -2.447120 0.915499
1.878650 -2.458567 0.909255
2.024263 -2.451239 0.900113
2.192125 -2.460706 0.899205
1.719713 -2.434932 0.786499
1.859425 -2.433408 0.774819
2.024073 -2.454759 0.772243
2.176794 -2.448999 0.761883
1.709738 -2.419284 0.664196
1.846004 -2.416981 0.650056
2.001431 -2.429112 0.640809
2.164346 -2.438335 0.631799
1.695527 -2.399176 0.545238
1.820691 -2.384528 0.526524
1.966727 -2.388265 0.512514
2.141042 -2.415730 0.503467
1.685539 -2.384778 0.431390
1.816582 -2.380783 0.412829
1.958461 -2.380767 0.395024
2.128201 -2.403776 0.380671
1.685470 -2.384680 0.323011
1.826811 -2.395748 0.303212
1.979972 -2.408716 0.284533
2.147346 -2.427789 0.265050
1.695863 -2.401607 0.216881
1.822859 -2.391259 0.192966
1.950165 -2.374143 0.168009
2.126568 -2.406836 0.145169
1.722883 -2.457105 0.917253
1.862396 -2.452857 0.905026
2.013071 -2.452975 0.898479
2.173054 -2.454418 0.894467
1.706126 -2.431490 0.783693
1.850778 -2.437557 0.774329
2.000519 -2.441414 0.766111
2.164112 -2.449826 0.760071
1.699504 -2.420526 0.663102
1.829122 -2.410169 0.646712
1.987140 -2.426901 0.638615
2.152958 -2.440546 0.630658
1.684769 -2.399539 0.544143
1.805032 -2.379117 0.524104
1.953767 -2.387417 0.511043
2.127090 -2.414873 0.501926
1.671961 -2.381032 0.429783
1.805679 -2.381609 0.412010
1.945497 -2.379853 0.393881
2.120816 -2.410294 0.380671
1.679859 -2.392280 0.323341
1.813443 -2.393411 0.302210
1.962493 -2.402439 0.283078
2.138571 -2.432868 0.264887
1.679895 -2.394552 0.215778
1.808886 -2.388089 0.192262
1.936558 -2.372380 0.167463
2.117856 -2.411848 0.145079
1.708231 -2.452178 0.913453
1.850817 -2.453198 0.903052
2.001887 -2.454665 0.896844
2.159141 -2.453831 0.891834
1.701423 -2.440679 0.784968
1.836285 -2.433937 0.771385
1.989338 -2.443019 0.764695
2.153373 -2.452794 0.758939
1.687604 -2.419326 0.661352
1.817008 -2.409523 0.645039
1.975356 -2.427665 0.637218
2.140930 -2.441973 0.629326
1.675712 -2.402277 0.543595
1.791796 -2.376779 0.522375
1.945811 -2.392634 0.510880
2.111861 -2.412466 0.500077
1.660686 -2.380471 0.428760
1.787634 -2.372895 0.409552
1.933809 -2.380421 0.392991
2.104260 -2.406324 0.379022
1.667394 -2.390086 0.322351
1.800706 -2.391810 0.301309
1.951347 -2.403810 0.282533
2.121261 -2.428159 0.263664
1.669690 -2.395604 0.215410
1.799751 -2.391236 0.192070
1.924867 -2.372882 0.167081
2.098623 -2.404786 0.144266
1.696890 -2.451903 0.911407
1.837527 -2.451188 0.900233
1.991924 -2.457806 0.895754
2.147792 -2.456086 0.890255
1.688972 -2.438734 0.782672
1.825902 -2.435680 0.770159
1.973886 -2.439290 0.761629
2.141995 -2.454985 0.757580
1.677950 -2.421284 0.660477
1.800812 -2.403347 0.641904
1.962970 -2.427618 0.635622
2.125044 -2.438907 0.626853
1.668334 -2.407407 0.543595
1.781543 -2.378323 0.521511
1.939081 -2.399360 0.511043
2.102504 -2.416697 0.499614
1.649430 -2.379863 0.427737
1.780939 -2.379162 0.409688
1.919643 -2.377853 0.391593
2.094262 -2.409770 0.378551
1.655524 -2.388655 0.321472
1.796339 -2.401306 0.301810
1.940211 -2.405134 0.281988
2.107268 -2.427130 0.262849
1.658358 -2.394976 0.214895
1.787027 -2.389553 0.191493
1.917578 -2.378776 0.167081
2.084035 -2.402911 0.143770
1.683941 -2.449217 0.908484
1.821974 -2.446042 0.896286
1.978339 -2.456412 0.893030
2.140247 -2.462664 0.890255
1.673261 -2.431955 0.778845
1.816104 -2.438161 0.769178
1.962131 -2.440033 0.759978
2.129349 -2.455658 0.755768
1.664427 -2.417579 0.658070
1.792846 -2.408076 0.641695
1.946306 -2.422171 0.632630
2.109840 -2.436509 0.624570
1.659825 -2.410894 0.543230
1.771885 -2.380617 0.520820
1.929240 -2.402221 0.510390
2.086679 -2.413420 0.497611
1.639877 -2.381653 0.427152
1.770676 -2.380640 0.409006
1.908615 -2.379089 0.390830
2.076473 -2.404159 0.376667
1.645933 -2.390448 0.321032
1.778873 -2.393231 0.300107
1.927840 -2.404860 0.281261
2.090696 -2.423019 0.261708
1.641394 -2.386084 0.213644
1.779092 -2.394223 0.191429
1.908398 -2.382310 0.166917
2.073393 -2.405510 0.143544
1.675880 -2.453582 0.908191
1.809325 -2.444679 0.893749
1.970793 -2.462469 0.893030
2.123853 -2.458997 0.886570
1.670157 -2.443463 0.780886
1.804001 -2.437487 0.767216
1.948569 -2.438449 0.757619
2.115446 -2.454801 0.753503
1.655350 -2.420258 0.657414
1.783705 -2.411207 0.641068
1.929083 -2.415880 0.629437
2.097873 -2.437762 0.623238
1.645760 -2.406237 0.541041
1.762816 -2.383666 0.520301
1.910784 -2.394249 0.507448
2.072826 -2.412316 0.496070
1.626977 -2.378508 0.425691
1.760420 -2.382078 0.408323
1.898834 -2.381831 0.390322
2.061973 -2.402229 0.375372
1.632980 -2.387283 0.319933
1.766203 -2.391474 0.299206
1.914869 -2.403752 0.280443
2.075467 -2.420343 0.260730
1.635191 -2.392756 0.213791
1.768775 -2.395656 0.191109
1.892374 -2.377217 0.166153
2.054955 -2.398962 0.142776
1.664049 -2.452381 0.905853
1.796700 -2.443262 0.891211
1.957240 -2.460974 0.890306
2.103732 -2.450861 0.881305
1.657221 -2.440576 0.778335
1.786751 -2.429733 0.763046
1.939266 -2.442133 0.756912
2.101569 -2.453882 0.751239
1.646820 -2.423711 0.656977
1.775141 -2.415092 0.640650
1.911916 -2.409505 0.626245
2.091022 -2.444932 0.623428
1.638922 -2.412088 0.541223
1.753746 -2.386682 0.519782
1.899751 -2.395461 0.506467
2.063490 -2.416410 0.495608
1.615781 -2.377761 0.424668
1.753104 -2.387467 0.408323
1.886590 -2.381426 0.389305
2.048149 -2.400989 0.374195
1.621179 -2.385705 0.319053
1.754148 -2.390464 0.298405
1.903158 -2.404150 0.279807
2.066092 -2.424423 0.260486
1.616079 -2.380434 0.212246
1.754923 -2.392220 0.190405
1.879497 -2.375964 0.165661
2.035929 -2.391564 0.141963
1.653310 -2.452717 0.904099
1.786932 -2.445665 0.890083
1.940135 -2.454889 0.885947
2.088690 -2.448495 0.878146
1.644859 -2.438435 0.776039
1.770138 -2.422679 0.759122
1.929958 -2.445783 0.756204
2.087087 -2.452159 0.748747
1.638285 -2.427134 0.656539
1.761379 -2.411839 0.638351
1.899661 -2.409203 0.624649
2.079696 -2.446848 0.622287
1.626014 -2.408955 0.539398
1.746415 -2.392051 0.519782
1.889340 -2.397404 0.505650
2.050952 -2.416703 0.494375
1.605157 -2.377787 0.423791
1.738180 -2.382431 0.406548
1.876821 -2.384085 0.388797
2.031140 -2.395899 0.372429
1.609959 -2.384901 0.318283
1.746806 -2.395834 0.298405
1.889617 -2.402150 0.278898
2.046406 -2.416299 0.258937
1.607653 -2.383727 0.212099
1.744637 -2.393561 0.190084
1.872816 -2.382504 0.165716
2.021485 -2.389409 0.141467
1.640989 -2.450626 0.901468
1.778293 -2.449582 0.889519
1.933189 -2.461586 0.886219
2.078673 -2.451949 0.877093
1.637371 -2.443470 0.776039
1.760988 -2.425745 0.758386
1.915849 -2.443280 0.753609
2.075780 -2.454088 0.747388
1.629200 -2.429718 0.655883
1.752248 -2.414857 0.637724
1.891657 -2.414249 0.624450
2.065211 -2.444967 0.620194
1.612592 -2.404950 0.537391
1.735020 -2.391817 0.518572
1.875893 -2.395422 0.504016
2.036521 -2.414675 0.492680
1.594549 -2.377771 0.422914
1.727375 -2.382940 0.405728
1.861553 -2.379676 0.387144
2.012903 -2.389209 0.370427
1.598206 -2.383225 0.317404
1.729525 -2.387484 0.296703
1.873652 -2.396952 0.277626
2.033849 -2.416466 0.258285
1.598667 -2.386162 0.211878
1.734944 -2.395669 0.189828
1.861195 -2.382730 0.165334
2.007716 -2.387953 0.141015
1.632933 -2.454853 0.901176
1.766280 -2.448801 0.887264
1.923260 -2.464471 0.885130
2.057465 -2.442083 0.871302
1.628259 -2.446067 0.775274
1.747866 -2.423273 0.755933
1.901775 -2.440714 0.751015
2.062600 -2.453735 0.745350
1.621197 -2.433893 0.655664
1.742543 -2.417049 0.636888
1.881231 -2.416175 0.623452
2.052019 -2.444524 0.618482
1.604116 -2.408249 0.537026
1.720763 -2.387540 0.516498
1.866112 -2.398052 0.503362
2.019583 -2.409553 0.490368
1.581762 -2.374419 0.421453
1.711950 -2.376974 0.403816
1.853026 -2.383810 0.386890
2.004289 -2.393851 0.370191
1.587581 -2.383154 0.316744
1.719286 -2.388741 0.296202
1.863235 -2.398757 0.277172
2.023228 -2.418872 0.257877
1.588024 -2.386075 0.211437
1.727586 -2.400981 0.189828
1.847754 -2.380541 0.164788
1.988851 -2.380303 0.140202
1.621703 -2.454266 0.899130
1.753729 -2.447190 0.884726
1.903308 -2.454393 0.879409
2.052441 -2.451342 0.872355
1.617547 -2.446212 0.773743
1.741553 -2.430200 0.756424
1.887733 -2.438085 0.748420
2.051316 -2.455566 0.743991
1.616415 -2.442924 0.656758
1.731703 -2.417614 0.635634
1.873809 -2.421935 0.623452
2.037592 -2.442516 0.616389
1.584784 -2.395120 0.533012
1.705402 -2.381597 0.514078
1.848487 -2.390498 0.500584
2.007122 -2.409664 0.489135
1.575016 -2.380085 0.421599
1.699462 -2.374965 0.402587
1.841459 -2.383988 0.386000
1.993124 -2.395408 0.369485
1.576971 -2.383040 0.316085
1.710213 -2.391577 0.295902
1.850999 -2.398155 0.276445
2.009427 -2.417403 0.257062
1.577396 -2.385944 0.210996
1.710346 -2.392468 0.188740
1.838612 -2.383827 0.164624
1.977710 -2.381782 0.139932
1.611542 -2.455232 0.897668
1.741761 -2.446306 0.882471
1.889896 -2.452599 0.876684
2.035655 -2.446504 0.868407
1.602072 -2.439040 0.769917
1.730153 -2.430004 0.754707
1.873133 -2.434623 0.745590
2.038173 -2.455103 0.741953
1.606233 -2.443794 0.655664
1.719175 -2.415744 0.633752
1.865773 -2.426896 0.623253
2.030716 -2.449511 0.616579
1.577969 -2.400792 0.533194
1.698087 -2.386818 0.514078
1.835734 -2.389117 0.499113
1.988380 -2.402111 0.486361
1.562272 -2.376639 0.420138
1.691019 -2.378553 0.402314
1.834137 -2.389627 0.386000
1.978805 -2.393094 0.368190
1.565284 -2.381222 0.315205
1.701715 -2.395190 0.295702
1.841814 -2.401452 0.276172
1.990576 -2.409725 0.255595
1.569521 -2.389938 0.210922
1.698375 -2.391195 0.188227
1.822787 -2.378361 0.163860
1.963399 -2.379363 0.139435
1.600868 -2.455358 0.895915
1.730923 -2.446939 0.880779
1.873588 -2.446926 0.872598
2.033672 -2.459429 0.870776
1.594582 -2.443944 0.769917
1.714292 -2.423428 0.751028
1.863295 -2.437270 0.744646
2.022573 -2.451578 0.739009
1.595527 -2.443808 0.654351
1.704416 -2.410627 0.631035
1.858319 -2.432608 0.623253
2.012579 -2.442849 0.613345
1.567371 -2.400682 0.532099
1.689051 -2.389603 0.513560
1.823008 -2.387681 0.497642
1.974724 -2.400569 0.484820
1.551728 -2.376451 0.419261
1.676284 -2.373211 0.400539
1.829804 -2.399186 0.386636
1.968932 -2.396084 0.367719
1.557428 -2.385181 0.315095
1.690342 -2.394709 0.295001
1.825987 -2.396002 0.274900
1.983806 -2.416591 0.255677
1.561092 -2.393072 0.210775
1.688729 -2.393133 0.187971
1.810037 -2.376792 0.163368
1.951022 -2.379195 0.139074
1.589169 -2.453836 0.893576
1.715684 -2.441248 0.876832
1.860246 -2.445006 0.869873
2.023055 -2.461930 0.869459
1.580766 -2.439088 0.766855
1.702389 -2.422331 0.749065
1.849342 -2.434463 0.742052
2.002692 -2.442707 0.734479
1.581651 -2.438868 0.651726
1.693077 -2.410243 0.629572
1.840775 -2.425030 0.619861
2.001965 -2.445214 0.612394
1.558393 -2.403005 0.531552
1.679448 -2.391550 0.512868
1.813289 -2.390119 0.496988
1.957344 -2.394376 0.482354
1.539585 -2.373731 0.417946
1.662167 -2.368612 0.398900
1.812850 -2.392140 0.384602
1.960943 -2.401344 0.367601
1.546858 -2.384945 0.314435
1.680702 -2.396626 0.294600
1.818628 -2.401593 0.274900
1.970712 -2.415716 0.254943
1.550489 -2.392828 0.210334
1.681952 -2.399120 0.188035
1.800929 -2.379946 0.163204
1.939296 -2.379749 0.138758
1.578529 -2.453874 0.891822
1.703243 -2.439420 0.874295
1.842872 -2.437653 0.865242
2.014882 -2.467378 0.869196
1.570135 -2.439048 0.765325
1.688290 -2.418004 0.746122
1.840694 -2.438574 0.741580
1.971194 -2.419390 0.725646
1.562536 -2.425662 0.646913
1.681757 -2.409813 0.628109
1.829786 -2.425972 0.618664
1.983302 -2.437637 0.608970
1.544624 -2.397856 0.529362
1.665903 -2.387805 0.510967
1.801196 -2.389368 0.495681
1.945628 -2.395002 0.481276
1.529617 -2.374285 0.417215
1.654892 -2.373700 0.398900
1.795955 -2.385013 0.382569
1.954193 -2.408120 0.367719
1.537919 -2.387172 0.314106
1.668791 -2.395240 0.293799
1.804665 -2.398408 0.273900
1.958898 -2.416331 0.254373
1.538822 -2.390865 0.209745
1.667739 -2.394442 0.187266
1.790618 -2.381469 0.162931
1.933872 -2.388016 0.138893
1.566359 -2.451453 0.889192
1.695204 -2.443846 0.874013
1.835963 -2.444065 0.865515
2.003048 -2.468304 0.867354
1.560561 -2.440595 0.764304
1.681416 -2.423969 0.746367
1.830288 -2.440322 0.740401
1.954569 -2.414071 0.722249
1.552457 -2.426334 0.645819
1.672685 -2.412550 0.627482
1.815283 -2.422165 0.616270
1.971493 -2.438366 0.607638
1.535671 -2.400099 0.528815
1.656887 -2.390477 0.510448
1.790900 -2.390935 0.494864
1.935168 -2.397116 0.480505
1.519659 -2.374800 0.416484
1.644782 -2.374694 0.398217
1.784470 -2.384952 0.381679
1.946172 -2.413331 0.367601
1.528981 -2.389368 0.313776
1.656339 -2.392985 0.292898
1.796702 -2.403135 0.273809
1.949600 -2.420001 0.254128
1.528257 -2.390533 0.209304
1.655275 -2.392162 0.186690
1.779120 -2.381352 0.162549
1.920274 -2.386156 0.138441
1.560368 -2.458669 0.890069
1.680077 -2.437975 0.870066
1.829607 -2.451228 0.866059
1.989409 -2.466928 0.864721
1.552029 -2.443739 0.763794
1.669571 -2.422730 0.744405
1.815824 -2.436576 0.737570
1.961807 -2.438269 0.727684
1.542912 -2.427792 0.644944
1.660283 -2.410422 0.625601
1.804332 -2.423007 0.615073
1.960928 -2.440576 0.606687
1.524608 -2.398990 0.527537
1.642842 -2.385814 0.508374
1.779433 -2.390878 0.493720
1.928423 -2.403812 0.480659
1.512897 -2.380286 0.416630
1.631873 -2.371568 0.396852
1.774778 -2.387231 0.381171
1.933791 -2.413091 0.366659
1.524842 -2.399081 0.314435
1.643915 -2.390677 0.291996
1.788133 -2.407037 0.273627
1.935314 -2.417412 0.253232
1.516639 -2.388475 0.208715
1.645101 -2.393117 0.186370
1.771806 -2.386799 0.162549
1.910449 -2.388915 0.138261
1.552308 -2.462636 0.889776
1.666627 -2.434410 0.866964
1.818639 -2.452193 0.864425
1.975195 -2.464738 0.861826
1.536271 -2.435404 0.759712
1.658844 -2.423041 0.742934
1.802558 -2.434325 0.735211
1.947018 -2.435148 0.724967
1.533373 -2.429213 0.644069
1.647910 -2.408241 0.623719
1.790478 -2.419866 0.612879
1.946693 -2.438142 0.604594
1.516192 -2.401994 0.527172
1.633846 -2.388404 0.507855
1.766811 -2.389187 0.492249
1.916727 -2.404309 0.479580
1.501890 -2.379061 0.415607
1.621235 -2.371657 0.396032
1.765678 -2.390272 0.380789
1.913388 -2.402699 0.364186
1.513761 -2.397864 0.313666
1.632083 -2.389136 0.291195
1.778966 -2.410108 0.273355
1.917961 -2.410859 0.251928
1.505580 -2.387212 0.208200
1.627058 -2.382495 0.185153
1.762697 -2.389813 0.162385
1.898138 -2.388508 0.137900
1.534088 -2.450365 0.883638
1.653755 -2.431578 0.864145
1.805970 -2.450790 0.861973
1.959210 -2.460221 0.858140
1.525198 -2.434370 0.757927
1.649767 -2.425714 0.742198
1.784139 -2.424972 0.730730
1.906819 -2.399928 0.712737
1.526432 -2.434733 0.644288
1.637765 -2.409242 0.622674
1.777822 -2.418242 0.611083
1.937984 -2.442564 0.604214
1.506726 -2.403302 0.526443
1.618760 -2.382001 0.505435
1.757720 -2.392211 0.491759
1.907502 -2.407855 0.479118
1.486176 -2.370248 0.413269
1.614508 -2.377439 0.396169
1.755988 -2.392479 0.380281
1.896764 -2.396878 0.362420
1.502173 -2.395760 0.312786
1.622511 -2.390839 0.290795
1.769796 -2.413146 0.273082
1.904374 -2.408913 0.251113
1.494014 -2.385059 0.207611
1.619181 -2.386649 0.185089
1.752406 -2.391183 0.162112
1.888944 -2.391968 0.137764
1.525553 -2.453435 0.883053
1.643602 -2.432665 0.862735
1.791622 -2.447003 0.858704
1.937285 -2.448064 0.851823
1.518744 -2.440680 0.758437
1.640689 -2.428354 0.741462
1.771529 -2.423373 0.728607
1.915140 -2.425643 0.718625
1.510703 -2.426151 0.640787
1.628724 -2.411823 0.622047
1.765192 -2.416564 0.609288
1.912854 -2.426141 0.598697
1.497787 -2.405409 0.525895
1.614751 -2.391854 0.506472
1.748627 -2.395202 0.491268
1.897050 -2.409814 0.478348
1.482035 -2.379834 0.414146
1.603882 -2.377453 0.395349
1.742796 -2.389841 0.379010
1.888787 -2.401905 0.362303
1.492714 -2.396982 0.312347
1.611831 -2.390856 0.290194
1.754174 -2.407296 0.271810
1.892049 -2.408474 0.250461
1.483528 -2.384550 0.207170
1.605158 -2.381675 0.184320
1.737420 -2.386054 0.161402
1.877896 -2.393037 0.137493
1.519527 -2.460545 0.883930
1.632388 -2.432120 0.860762
1.777314 -2.443151 0.855435
1.932747 -2.457788 0.853139
1.505658 -2.436280 0.755631
1.632691 -2.432571 0.741217
1.752093 -2.412285 0.723654
1.913701 -2.439171 0.720890
1.500173 -2.425795 0.639475
1.621316 -2.416809 0.622047
1.752015 -2.414037 0.607292
1.902374 -2.428134 0.597745
1.485746 -2.402467 0.524253
1.601920 -2.388616 0.504744
1.743009 -2.402951 0.491759
1.887821 -2.413288 0.477885
1.474727 -2.384370 0.414146
1.594375 -2.379071 0.394803
1.731382 -2.389554 0.378120
1.881410 -2.407689 0.362303
1.482739 -2.397324 0.311797
1.600613 -2.390003 0.289493
1.747948 -2.414280 0.271992
1.879132 -2.407197 0.249727
1.470963 -2.380607 0.206434
1.595068 -2.382442 0.184000
1.725995 -2.385711 0.161020
1.505971 -2.455413 0.880423
1.623322 -2.434722 0.859916
1.769247 -2.447812 0.855162
1.900249 -2.431779 0.842083
1.491095 -2.429351 0.752059
1.624145 -2.435955 0.740726
1.746959 -2.420801 0.724597
1.897825 -2.434276 0.717719
1.490681 -2.427060 0.638600
1.613352 -2.420958 0.621838
1.739442 -2.412248 0.605497
1.891900 -2.430086 0.596794
1.472193 -2.396960 0.522063
1.594584 -2.393519 0.504744
1.723515 -2.391480 0.488327
1.877376 -2.415168 0.477115
1.458085 -2.373710 0.411516
1.581579 -2.375705 0.393437
1.721145 -2.390829 0.377485
1.871578 -2.410312 0.361832
1.470695 -2.394240 0.310807
1.590518 -2.390760 0.288992
1.735881 -2.413164 0.271265
1.865629 -2.405075 0.248912
1.464175 -2.385958 0.206508
1.582777 -2.379846 0.183424
1.493456 -2.451854 0.877499
1.614256 -2.437291 0.859070
1.757238 -2.446977 0.852983
1.881538 -2.423120 0.837082
1.482125 -2.431437 0.751294
1.615593 -2.439310 0.740236
1.746319 -2.435626 0.727428
1.864698 -2.406978 0.707981
1.477638 -2.422459 0.636193
1.606997 -2.427527 0.622256
1.729180 -2.413590 0.604499
1.881432 -2.431997 0.595843
1.467393 -2.405662 0.522976
1.582341 -2.391008 0.503188
1.723062 -2.406382 0.490288
1.863918 -2.413097 0.475574
1.451826 -2.379861 0.411808
1.569365 -2.373110 0.392208
1.705146 -2.383997 0.375578
1.857501 -2.407394 0.360536
1.459719 -2.392801 0.310038
1.580981 -2.392308 0.288592
1.718625 -2.404704 0.269720
1.855199 -2.406841 0.248505
1.453734 -2.385329 0.206067
1.483946 -2.453152 0.876330
1.603606 -2.437423 0.857378
1.744135 -2.444524 0.850258
1.865844 -2.418188 0.833397
1.472155 -2.431837 0.750018
1.604372 -2.438586 0.738519
1.736583 -2.437807 0.726484
1.887606 -2.452050 0.719531
1.464132 -2.416966 0.633568
1.596855 -2.428361 0.621211
1.719494 -2.415691 0.603701
1.870372 -2.433087 0.594701
1.458477 -2.407630 0.522428
1.572834 -2.392559 0.502497
1.702518 -2.393167 0.486529
1.850490 -2.410966 0.474033
1.441442 -2.379228 0.410931
1.556094 -2.368806 0.390706
1.690355 -2.378706 0.373926
1.848294 -2.410717 0.360183
1.450311 -2.393868 0.309598
1.571450 -2.393820 0.288191
1.711240 -2.409966 0.269720
1.847806 -2.412521 0.248505
1.445892 -2.388925 0.205993
1.474936 -2.455233 0.875453
1.594021 -2.439119 0.856251
1.728280 -2.438089 0.846172
1.864874 -2.432322 0.836292
1.460203 -2.428884 0.747722
1.595292 -2.441062 0.737783
1.726850 -2.439950 0.725541
1.868831 -2.443130 0.715228
1.455201 -2.418938 0.632911
1.581375 -2.420967 0.618076
1.710377 -2.418554 0.603103
1.859323 -2.434133 0.593560
1.444495 -2.401141 0.520056
1.559024 -2.387477 0.500422
1.691182 -2.392740 0.485385
1.839489 -2.411918 0.473108
1.432096 -2.380248 0.410347
1.543947 -2.366102 0.389477
1.678473 -2.377399 0.372909
1.834872 -2.408477 0.359006
1.439886 -2.393196 0.308938
1.560294 -2.392796 0.287490
1.695227 -2.402998 0.268357
1.833153 -2.408662 0.247527
1.467886 -2.460568 0.875746
1.587053 -2.444802 0.856533
1.715806 -2.436299 0.843720
1.844540 -2.421149 0.830501
1.449771 -2.428371 0.746192
1.578294 -2.431308 0.733368
1.710413 -2.432517 0.721767
1.861326 -2.448852 0.715228
1.443770 -2.416690 0.631161
1.566489 -2.414322 0.615149
1.704076 -2.425394 0.603502
1.849473 -2.436698 0.592799
1.436113 -2.403873 0.519691
1.550084 -2.389770 0.499904
1.679298 -2.391458 0.484077
1.829097 -2.413612 0.472337
1.418698 -2.374440 0.408593
1.535064 -2.368334 0.389067
1.672880 -2.384973 0.373290
1.821480 -2.406177 0.357828
1.432027 -2.396749 0.308828
1.552946 -2.397572 0.287490
1.681559 -2.399217 0.267357
1.828159 -2.417454 0.247853
1.454481 -2.455186 0.872238
1.577985 -2.447241 0.855687
1.682398 -2.404499 0.830916
1.832446 -2.420643 0.828395
1.445273 -2.437798 0.747722
1.565574 -2.427991 0.730915
1.704055 -2.439347 0.722239
1.844999 -2.442892 0.711831
1.433859 -2.416912 0.630067
1.554306 -2.411719 0.613268
1.693822 -2.426593 0.602504
1.838441 -2.437658 0.591658
1.428229 -2.407422 0.519509
1.540078 -2.390374 0.499040
1.668566 -2.391744 0.483097
1.819901 -2.416845 0.471875
1.410902 -2.377931 0.408447
1.527791 -2.373032 0.389067
1.659884 -2.381956 0.372019
1.811105 -2.407786 0.357239
1.421624 -2.396002 0.308169
1.543968 -2.399814 0.287190
1.665655 -2.392106 0.265994
1.814747 -2.415083 0.247038
1.441123 -2.449746 0.868730
1.568918 -2.449647 0.854841
1.665128 -2.395428 0.826012
1.824431 -2.425483 0.828132
1.436315 -2.439721 0.746957
1.547660 -2.416456 0.726010
1.689914 -2.434983 0.719408
1.814695 -2.418158 0.702998
1.426933 -2.422140 0.630286
1.544791 -2.413182 0.612432
1.680227 -2.422921 0.600310
1.826244 -2.437001 0.590136
1.419839 -2.410098 0.519144
1.531144 -2.392599 0.498521
1.658410 -2.392798 0.482280
1.807742 -2.416088 0.470642
1.399582 -2.375429 0.407278
1.514633 -2.368528 0.387565
1.648616 -2.381329 0.371130
1.799548 -2.407763 0.356415
1.411239 -2.395214 0.307509
1.533383 -2.399510 0.286589
1.653209 -2.389834 0.265176
1.804944 -2.417445 0.246712
1.430224 -2.448375 0.866684
1.559850 -2.452020 0.853995
1.656131 -2.398151 0.825195
1.812938 -2.425659 0.826289
1.423944 -2.435769 0.744406
1.530352 -2.405651 0.721349
1.668645 -2.420155 0.713511
1.774080 -2.379207 0.690089
1.413583 -2.416400 0.627661
1.531084 -2.408007 0.609924
1.665559 -2.417574 0.597716
1.806446 -2.426057 0.586140
1.407473 -2.405956 0.517319
1.520626 -2.392298 0.497484
1.645467 -2.389749 0.480646
1.794426 -2.413693 0.469101
1.390290 -2.376296 0.406693
1.506297 -2.371491 0.387292
1.640179 -2.384741 0.370876
1.786232 -2.405300 0.355238
1.402378 -2.396959 0.307179
1.523349 -2.400002 0.286088
1.634024 -2.377659 0.263268
1.788611 -2.410965 0.245489
1.420787 -2.449443 0.865515
1.549758 -2.452738 0.852585
1.645499 -2.398460 0.823560
1.789382 -2.409523 0.818919
1.415493 -2.438453 0.743896
1.531768 -2.424267 0.725519
1.656819 -2.418849 0.711624
1.799244 -2.428465 0.702771
1.409103 -2.425787 0.628974
1.526822 -2.417654 0.611178
1.655920 -2.419438 0.596918
1.793740 -2.424485 0.584428
1.397616 -2.406012 0.516406
1.510125 -2.391955 0.496447
1.634228 -2.389086 0.479501
1.780555 -2.410445 0.467406
1.381502 -2.377985 0.406255
1.501657 -2.380290 0.387975
1.628378 -2.383210 0.369859
1.773538 -2.403578 0.354178
1.393520 -2.398672 0.306849
1.515978 -2.404665 0.286088
1.625038 -2.380194 0.262995
1.778249 -2.412429 0.245081
1.413265 -2.453790 0.865515
1.539165 -2.452605 0.850894
1.633798 -2.397136 0.821381
1.792865 -2.429751 0.823920
1.406074 -2.439433 0.742875
1.525354 -2.430598 0.726010
1.656498 -2.434365 0.714691
1.794095 -2.437111 0.703677
1.398242 -2.424183 0.627442
1.516280 -2.417356 0.609924
1.644082 -2.418024 0.595322
1.782223 -2.424439 0.583097
1.386298 -2.403475 0.514947
1.501210 -2.394073 0.495928
1.627446 -2.394904 0.479665
1.772567 -2.415100 0.467252
1.374200 -2.382212 0.406255
1.491192 -2.379849 0.387156
1.621059 -2.388195 0.369859
1.760871 -2.401800 0.353118
1.383175 -2.397770 0.306190
1.506482 -2.405931 0.285688
1.619964 -2.388465 0.263358
1.764950 -2.409833 0.244266
1.404306 -2.455624 0.864638
1.525036 -2.446731 0.847229
1.624278 -2.398950 0.820291
1.783691 -2.432906 0.823130
1.393781 -2.435344 0.740324
1.511736 -2.425393 0.723066
1.646844 -2.436215 0.713747
1.781434 -2.435528 0.701639
1.381099 -2.411526 0.623067
1.501100 -2.409547 0.606789
1.632817 -2.417373 0.593926
1.770144 -2.423553 0.581575
1.377452 -2.405157 0.514399
1.489172 -2.391143 0.494372
1.619538 -2.399068 0.479501
1.762238 -2.416535 0.466481
1.364918 -2.382983 0.405670
1.476555 -2.372638 0.385244
1.610951 -2.389045 0.369223
1.750571 -2.403177 0.352530
1.369390 -2.390790 0.304761
1.495941 -2.405472 0.285087
1.610402 -2.390120 0.262995
1.754617 -2.411207 0.243859
1.393933 -2.454931 0.862884
1.513482 -2.444872 0.844973
1.620670 -2.409511 0.822198
1.771106 -2.431349 0.820761
1.386302 -2.439608 0.740324
1.498165 -2.420128 0.720123
1.631778 -2.429962 0.710445
1.745323 -2.401586 0.690315
1.373212 -2.414904 0.622848
1.488041 -2.404993 0.604489
1.620479 -2.415048 0.592130
1.758664 -2.423411 0.580243
1.370066 -2.409372 0.514399
1.477684 -2.388999 0.492989
1.602829 -2.390097 0.476723
1.755975 -2.423530 0.466790
1.350754 -2.375120 0.403624
1.465103 -2.370416 0.384151
1.603062 -2.393152 0.369096
1.735621 -2.398079 0.350999
1.359592 -2.390660 0.304211
1.477574 -2.392273 0.282984
1.600292 -2.390911 0.262541
1.747211 -2.416578 0.243859
1.380759 -2.449199 0.859377
1.498437 -2.437244 0.840744
1.611666 -2.412072 0.821381
1.749498 -2.417233 0.814181
1.377861 -2.442166 0.739814
1.479055 -2.405718 0.714482
1.628629 -2.441424 0.712332
1.753342 -2.428251 0.696430
1.361479 -2.411458 0.620879
1.486287 -2.418712 0.606789
1.610344 -2.415931 0.591133
1.748924 -2.425609 0.579482
1.358801 -2.406714 0.512939
1.465707 -2.385968 0.491434
1.589473 -2.385971 0.474925
1.743337 -2.421689 0.465403
1.340542 -2.374084 0.402748
1.457823 -2.374899 0.384151
1.590218 -2.389801 0.367825
1.729994 -2.405811 0.351352
1.352251 -2.394820 0.304211
1.466065 -2.390010 0.282183
1.591296 -2.393322 0.262268
1.733974 -2.413833 0.243044
1.369034 -2.445913 0.856746
1.486953 -2.435279 0.838488
1.604259 -2.417005 0.821381
1.742637 -2.423373 0.814444
1.365164 -2.437102 0.737008
1.483287 -2.429275 0.720123
1.607175 -2.425347 0.706199
1.748723 -2.437576 0.697562
1.351212 -2.410516 0.619566
1.472747 -2.413243 0.604280
1.599679 -2.415958 0.589936
1.737472 -2.425377 0.578150
1.345642 -2.400580 0.510750
1.459406 -2.392135 0.491780
1.589223 -2.401532 0.477050
1.731875 -2.421401 0.464324
1.332769 -2.377323 0.402601
1.446405 -2.372594 0.383059
1.576862 -2.385566 0.366427
1.715101 -2.400603 0.349822
1.340523 -2.391154 0.303221
1.456138 -2.390248 0.281682
1.585043 -2.399855 0.262450
1.719033 -2.408595 0.241984
1.361524 -2.450102 0.856746
1.479475 -2.439829 0.838488
1.593658 -2.417096 0.819746
1.729586 -2.420858 0.811811
1.349222 -2.426069 0.732416
1.471806 -2.427183 0.718161
1.598123 -2.427831 0.705492
1.741236 -2.442929 0.697562
1.342861 -2.412945 0.619129
1.459254 -2.407715 0.601772
1.586336 -2.411849 0.587741
1.728315 -2.428297 0.577580
1.332533 -2.394387 0.508560
1.448998 -2.391547 0.490742
1.570467 -2.389084 0.473618
1.719860 -2.420259 0.463091
1.323063 -2.377079 0.401871
1.439632 -2.377868 0.383195
1.562459 -2.379614 0.364775
1.701405 -2.396946 0.348526
1.327863 -2.385702 0.302012
1.447768 -2.393002 0.281482
1.576034 -2.402208 0.262177
1.705294 -2.404914 0.241088
1.348457 -2.444219 0.853238
1.472477 -2.445179 0.838770
1.588871 -2.425998 0.821108
1.722709 -2.426939 0.812075
1.339903 -2.426811 0.731395
1.458351 -2.421721 0.715218
1.572054 -2.404256 0.697236
1.729230 -2.441901 0.695751
1.336867 -2.419616 0.619785
1.449843 -2.408829 0.600936
1.580001 -2.418345 0.588140
1.715756 -2.426373 0.575867
1.320902 -2.390719 0.506918
1.435561 -2.385854 0.488668
1.559894 -2.388935 0.472637
1.703878 -2.413417 0.460779
1.312894 -2.375931 0.400994
1.424163 -2.368690 0.381010
1.554067 -2.382735 0.364521
1.694043 -2.402155 0.348526
1.320057 -2.388895 0.301902
1.438882 -2.394873 0.281182
1.566482 -2.403695 0.261814
1.695038 -2.406061 0.240680
1.337277 -2.441635 0.850900
1.462014 -2.444744 0.837079
1.574075 -2.419570 0.817294
1.705803 -2.418810 0.807600
1.326409 -2.419887 0.728079
1.446436 -2.418696 0.713010
1.580550 -2.433516 0.704312
1.723412 -2.449584 0.696430
1.326153 -2.417717 0.618254
1.439435 -2.408229 0.599682
1.566707 -2.414139 0.585945
1.708304 -2.431626 0.575867
1.311669 -2.391312 0.506188
1.427729 -2.389401 0.488495
1.550947 -2.391226 0.472147
1.695331 -2.417015 0.460471
1.302268 -2.373877 0.399971
1.417905 -2.374749 0.381283
1.543514 -2.382497 0.363758
1.682677 -2.401647 0.347702
1.311766 -2.391191 0.301682
1.427449 -2.392441 0.280381
1.553147 -2.399293 0.260814
1.689363 -2.413699 0.240925
1.328866 -2.444046 0.850315
1.436871 -2.419521 0.826929
1.589622 -2.459945 0.829281
1.689517 -2.411391 0.803388
1.312971 -2.412904 0.724763
1.423663 -2.397282 0.705407
1.559379 -2.417123 0.698180
1.708076 -2.443683 0.693259
1.317329 -2.419204 0.617597
1.428546 -2.406748 0.598219
1.557700 -2.416463 0.585347
1.694655 -2.428000 0.573775
1.302916 -2.392735 0.505640
1.415365 -2.385300 0.486767
1.540932 -2.391826 0.471330
1.682824 -2.414909 0.459084
1.290720 -2.370042 0.398656
1.409602 -2.377383 0.381010
1.534587 -2.384719 0.363377
1.666224 -2.393758 0.345818
1.298719 -2.384729 0.300363
1.419089 -2.395097 0.280180
1.540932 -2.396508 0.259996
1.675691 -2.409870 0.240028
1.320453 -2.446428 0.849730
1.434314 -2.432182 0.829748
1.576870 -2.456714 0.826557
1.674946 -2.406269 0.799966
1.306481 -2.418623 0.725273
1.437478 -2.437546 0.715953
1.551956 -2.421895 0.698180
1.692793 -2.437712 0.690089
1.308045 -2.419800 0.616722
1.423639 -2.415331 0.599264
1.540768 -2.406377 0.581756
1.686638 -2.432381 0.573584
1.297439 -2.400180 0.506370
1.405041 -2.384539 0.485730
1.533055 -2.395712 0.471167
1.668096 -2.409500 0.457081
1.281091 -2.369640 0.397925
1.399286 -2.376575 0.380191
1.524058 -2.384401 0.362614
1.654918 -2.393141 0.344994
1.289979 -2.386080 0.300033
1.410725 -2.397725 0.279980
1.538932 -2.409618 0.260905
1.660925 -2.404339 0.238969
1.310683 -2.446253 0.848269
1.416180 -2.418357 0.823546
1.565705 -2.455861 0.824650
1.662617 -2.404255 0.797597
1.303624 -2.431141 0.727824
1.420685 -2.426050 0.711293
1.547649 -2.431564 0.699595
1.663182 -2.410824 0.681029
1.296001 -2.415204 0.614535
1.412270 -2.412936 0.597592
1.532326 -2.409439 0.581357
1.672485 -2.427842 0.571301
1.288675 -2.401550 0.505823
1.397221 -2.387988 0.485557
1.521993 -2.394575 0.470023
1.659576 -2.412978 0.456773
1.273347 -2.372687 0.397779
1.390989 -2.379146 0.379918
1.513014 -2.383204 0.361724
1.648131 -2.399026 0.345112
1.279362 -2.383896 0.299263
1.402358 -2.400323 0.279780
1.528332 -2.409282 0.260360
1.645645 -2.397919 0.237828
1.300029 -2.444352 0.846223
1.414059 -2.431813 0.826647
1.550956 -2.449272 0.820836
1.649770 -2.401393 0.794964
1.292071 -2.427447 0.725528
1.409336 -2.423692 0.709331
1.538105 -2.433015 0.698651
1.662386 -2.425556 0.683747
1.289044 -2.420030 0.614753
1.397981 -2.405420 0.594665
1.520741 -2.407501 0.579761
1.662256 -2.428911 0.570350
1.280377 -2.403757 0.505458
1.391373 -2.394819 0.486075
1.512007 -2.395062 0.469205
1.643247 -2.405005 0.454307
1.264201 -2.373090 0.397194
1.382688 -2.381689 0.379645
1.503050 -2.383639 0.361089
1.641882 -2.405711 0.345347
1.271108 -2.386055 0.299044
1.390494 -2.396869 0.278879
1.519340 -2.411432 0.260087
1.633228 -2.395545 0.237094
1.292970 -2.449175 0.846515
1.412348 -2.446111 0.830030
1.520895 -2.418182 0.808849
1.650553 -2.418396 0.798913
1.284617 -2.431400 0.725528
1.401409 -2.427165 0.709086
1.522365 -2.424555 0.694877
1.658774 -2.436281 0.685332
1.275684 -2.412759 0.611909
1.386685 -2.402922 0.592993
1.513348 -2.412155 0.579761
1.652037 -2.429940 0.569399
1.269319 -2.400720 0.503998
1.378605 -2.389691 0.484174
1.501507 -2.394675 0.468225
1.633086 -2.405948 0.453536
1.255065 -2.373459 0.396610
1.370922 -2.378196 0.378416
1.489939 -2.378992 0.359691
1.630036 -2.404162 0.344405
1.261458 -2.385550 0.298494
1.379161 -2.394226 0.278078
1.502426 -2.400886 0.258451
1.624194 -2.398068 0.236850
1.283675 -2.449742 0.845346
1.393385 -2.430456 0.823264
1.525703 -2.442421 0.815387
1.655578 -2.441814 0.804967
1.275805 -2.432760 0.724763
1.389134 -2.423043 0.706633
1.508235 -2.418494 0.691811
1.649109 -2.438132 0.684427
1.264195 -2.408885 0.609940
1.377847 -2.404619 0.592366
1.505940 -2.416787 0.579761
1.642376 -2.431743 0.568638
1.258293 -2.397638 0.502538
1.369309 -2.390491 0.483482
1.494675 -2.400107 0.468388
1.622383 -2.406031 0.452612
1.246858 -2.375547 0.396318
1.359190 -2.374653 0.377187
1.483681 -2.385237 0.359945
1.619324 -2.404210 0.343699
1.253210 -2.387649 0.298274
1.371809 -2.398446 0.278078
1.492425 -2.401255 0.257997
1.614604 -2.399732 0.236524
1.272181 -2.446033 0.842715
1.390668 -2.443058 0.826083
1.518203 -2.447091 0.815387
1.651312 -2.451682 0.806547
1.263424 -2.427229 0.721956
1.380255 -2.424766 0.705897
1.497226 -2.417327 0.690160
1.641078 -2.442371 0.684200
1.253643 -2.406694 0.608409
1.368046 -2.404586 0.591321
1.495424 -2.416396 0.578564
1.626156 -2.423726 0.565594
1.248206 -2.396256 0.501443
1.360021 -2.391256 0.482791
1.481077 -2.394613 0.466427
1.609495 -2.402788 0.451071
1.234993 -2.370587 0.394856
1.348962 -2.373644 0.376367
1.473750 -2.385558 0.359310
1.606418 -2.400913 0.342521
1.243123 -2.386193 0.297614
1.362970 -2.400048 0.277777
1.480343 -2.398196 0.257179
1.605572 -2.402189 0.236279
1.262039 -2.444825 0.840961
1.370420 -2.424761 0.818471
1.500593 -2.435354 0.809939
1.638418 -2.448719 0.803914
1.254640 -2.428516 0.721191
1.369948 -2.423925 0.704426
1.468927 -2.387972 0.680489
1.633577 -2.447394 0.684200
1.242221 -2.402728 0.606440
1.360181 -2.407920 0.591112
1.481333 -2.410120 0.575970
1.617624 -2.427070 0.565214
1.238591 -2.395707 0.500531
1.349288 -2.389414 0.481581
1.472691 -2.397465 0.466100
1.600473 -2.405247 0.450608
1.224534 -2.368214 0.393833
1.338266 -2.371732 0.375411
1.464349 -2.386687 0.358801
1.596296 -2.401695 0.341933
1.234427 -2.387347 0.297284
1.351202 -2.396417 0.276876
1.467774 -2.394236 0.256270
1.597093 -2.405442 0.236116
1.254969 -2.449537 0.841254
1.372365 -2.445688 0.824109
1.490604 -2.435843 0.808576
1.628227 -2.449717 0.802598
1.246301 -2.430633 0.720681
1.342580 -2.392608 0.694124
1.488951 -2.437249 0.693226
1.615834 -2.436971 0.679897
1.232171 -2.401319 0.605127
1.349917 -2.406964 0.589858
1.473932 -2.414653 0.575970
1.604208 -2.423017 0.563121
1.232581 -2.402120 0.501078
1.339061 -2.388387 0.480544
1.460190 -2.393550 0.464466
1.590907 -2.406849 0.449992
1.214552 -2.366679 0.392957
1.326626 -2.368048 0.374182
1.450827 -2.381003 0.357276
1.586184 -2.402437 0.341344
1.226190 -2.389355 0.297065
1.338984 -2.391870 0.275875
1.457832 -2.394475 0.255816
1.589156 -2.409499 0.236035
1.245714 -2.449966 0.840084
1.350380 -2.423904 0.815369
1.481125 -2.437115 0.807487
1.615920 -2.447455 0.800229
1.233576 -2.424104 0.717620
1.345613 -2.415347 0.699520
1.470377 -2.423527 0.688037
1.594420 -2.420767 0.674008
1.225683 -2.406827 0.605565
1.339672 -2.405968 0.588604
1.465501 -2.417488 0.575571
1.597307 -2.428747 0.563311
1.225652 -2.406766 0.501261
1.328374 -2.386460 0.479334
1.447728 -2.389580 0.462832
1.579177 -2.405111 0.448759
1.206837 -2.369512 0.392810
1.314058 -2.362584 0.372680
1.441461 -2.382049 0.356768
1.574449 -2.400649 0.340402
1.219755 -2.394877 0.297284
1.324872 -2.383791 0.274473
1.450479 -2.398936 0.255816
1.575203 -2.404359 0.235056
1.237761 -2.452922 0.839792
1.345259 -2.432233 0.816779
1.471652 -2.438353 0.806397
1.606817 -2.449981 0.799439
1.227005 -2.429603 0.718130
1.345704 -2.433038 0.703445
1.441871 -2.393067 0.678131
1.593385 -2.435428 0.676726
1.214332 -2.402738 0.603596
1.328026 -2.402364 0.586723
1.455045 -2.416936 0.574374
1.582868 -2.422952 0.560838
1.216489 -2.407005 0.500531
1.316758 -2.382766 0.477778
1.435813 -2.386402 0.461361
1.569632 -2.406634 0.448143
1.201793 -2.377618 0.393541
1.303451 -2.360534 0.371724
1.430059 -2.379658 0.355751
1.564367 -2.401308 0.339813
1.209712 -2.393285 0.296625
1.314188 -2.381746 0.273772
1.440036 -2.398252 0.255270
1.564013 -2.403333 0.234486
1.226804 -2.449867 0.837454
1.330402 -2.422893 0.812268
1.457239 -2.431302 0.802583
1.595080 -2.448432 0.797334
1.218679 -2.431628 0.717620
1.323768 -2.410812 0.695841
1.410572 -2.357452 0.666809
1.590152 -2.446839 0.678538
1.203893 -2.400347 0.602064
1.318297 -2.402140 0.585677
1.442092 -2.412137 0.572180
1.572755 -2.423679 0.559887
1.206013 -2.404574 0.499254
1.306599 -2.381613 0.476741
1.425449 -2.385715 0.460380
1.559018 -2.406463 0.447218
1.188727 -2.369799 0.391641
1.294774 -2.361916 0.371314
1.421735 -2.382331 0.355497
1.554834 -2.402761 0.339342
1.199690 -2.391655 0.295965
1.304963 -2.382276 0.273371
1.429102 -2.396671 0.254634
1.553927 -2.403935 0.234078
1.216728 -2.448481 0.835700
1.324799 -2.430333 0.813396
1.449281 -2.434935 0.802310
1.587036 -2.452505 0.797070
1.212935 -2.438818 0.718640
1.317757 -2.417415 0.696577
1.458434 -2.454502 0.692990
1.575242 -2.440249 0.675367
1.196958 -2.404903 0.602283
1.306711 -2.398445 0.583796
1.433185 -2.414022 0.571581
1.554142 -2.411164 0.555892
1.192935 -2.396820 0.496882
1.295047 -2.377826 0.475185
1.416612 -2.387532 0.459890
1.548954 -2.407080 0.446448
1.181451 -2.373434 0.391641
1.286101 -2.363267 0.370905
1.408856 -2.377295 0.354098
1.545308 -2.404179 0.338871
1.190575 -2.391765 0.295525
1.290518 -2.373157 0.271869
1.412609 -2.385620 0.252999
1.547622 -2.410368 0.234241
1.207942 -2.449629 0.834823
1.310031 -2.420885 0.808885
1.444742 -2.444339 0.803945
1.577418 -2.454116 0.796017
1.202880 -2.437325 0.717109
1.310335 -2.421446 0.696577
1.439045 -2.438878 0.687330
1.564068 -2.439331 0.673782
1.187845 -2.405064 0.601408
1.297486 -2.399002 0.582960
1.425274 -2.417563 0.571382
1.547267 -2.416747 0.556082
1.179916 -2.389008 0.494509
1.284935 -2.376589 0.474148
1.405775 -2.385916 0.458746
1.539966 -2.409323 0.445985
1.170659 -2.369952 0.390472
1.276961 -2.363715 0.370358
1.401053 -2.380752 0.353971
1.533649 -2.402212 0.337929
1.181031 -2.390951 0.294976
1.280395 -2.371852 0.271268
1.407302 -2.393377 0.253362
1.538076 -2.411743 0.233915
1.197899 -2.448169 0.833069
1.298057 -2.416441 0.806065
1.435775 -2.446271 0.803128
1.574035 -2.465449 0.798123
1.191995 -2.434057 0.715068
1.300147 -2.420331 0.695105
1.422221 -2.427350 0.682848
1.550821 -2.435081 0.671291
1.178744 -2.405192 0.600533
1.288269 -2.399525 0.582124
1.409434 -2.407549 0.567990
1.539318 -2.420654 0.555892
1.170850 -2.389085 0.493779
1.276240 -2.377916 0.473629
1.398947 -2.391070 0.458909
1.528860 -2.408197 0.444906
1.165994 -2.378862 0.391349
1.269704 -2.367622 0.370358
1.396745 -2.390177 0.354734
1.522550 -2.401036 0.337105
1.171065 -2.389208 0.294316
1.272642 -2.374892 0.271168
1.392421 -2.384783 0.251999
1.528536 -2.413083 0.233589
1.186623 -2.444090 0.830438
1.290638 -2.420412 0.806065
1.424871 -2.444845 0.801221
1.561297 -2.462119 0.795491
1.180295 -2.429006 0.712517
1.291347 -2.421742 0.694369
1.408415 -2.420783 0.679782
1.539698 -2.434065 0.669705
1.171359 -2.408797 0.600533
1.277682 -2.397425 0.580661
1.396624 -2.402543 0.565795
1.524021 -2.412915 0.553038
1.160935 -2.387361 0.492685
1.268939 -2.381821 0.473629
1.392596 -2.397056 0.459236
1.519356 -2.409534 0.444290
1.156527 -2.377980 0.390618
1.261037 -2.368882 0.369949
1.388908 -2.393593 0.354607
1.514118 -2.404015 0.336870
1.162426 -2.390108 0.293986
1.265818 -2.379664 0.271268
1.383599 -2.386459 0.251726
1.520064 -2.416074 0.233426
1.176214 -2.441688 0.828392
1.294427 -2.445560 0.813114
1.418810 -2.451703 0.802038
1.552194 -2.464448 0.794701
1.171578 -2.430003 0.711752
1.279830 -2.417981 0.692162
1.382995 -2.393958 0.671054
1.529632 -2.434654 0.668573
1.162267 -2.408864 0.599658
1.269863 -2.400469 0.580452
1.386798 -2.402573 0.564798
1.512959 -2.411758 0.551706
1.152751 -2.389140 0.492320
1.259323 -2.381349 0.472765
1.380305 -2.392772 0.457602
1.510384 -2.411671 0.443828
1.143637 -2.369935 0.388719
1.253301 -2.371864 0.369812
1.380072 -2.395265 0.354226
1.502522 -2.401914 0.335928
1.153791 -2.390977 0.293656
1.256188 -2.379137 0.270768
1.379749 -2.396734 0.252362
1.511060 -2.418190 0.233182
1.167481 -2.442697 0.827515
