x      y      z
0.914716 -4.189723 -0.876152
1.019027 -3.949731 -0.875668
0.549257 -3.875876 -0.874084
0.665004 -3.701950 -0.876575
0.758367 -3.475333 -0.865947
0.852672 -3.309240 -0.868652
0.459819 -3.273116 -0.870633
0.561177 -3.138126 -0.871934
0.634992 -2.913613 -0.847140
0.732982 -2.842665 -0.867014
2.206141 -10.131868 -0.189324
2.000207 -7.818044 -0.225130
1.444212 -10.155187 -0.368950
1.828104 -10.180566 -0.468425
2.052949 -9.448948 -0.531631
2.272888 -8.896132 -0.592640
1.203939 -8.497585 -0.622576
1.424636 -7.955234 -0.663734
1.619055 -7.472639 -0.700014
1.784051 -6.992993 -0.731929
0.959639 -6.806637 -0.752335
1.152793 -6.458682 -0.780348
1.325726 -6.127584 -0.806349
1.472515 -5.779436 -0.825992
0.806097 -5.738588 -0.850450
1.010390 -5.679763 -0.901844
1.135605 -5.262163 -0.893807
1.233716 -4.844300 -0.881176
0.656885 -4.700166 -0.875907
0.789445 -4.453978 -0.878932
0.897737 -4.173353 -0.872148
1.007870 -3.956628 -0.876507
0.536560 -3.871742 -0.872777
0.654151 -3.706850 -0.877256
0.747088 -3.474793 -0.865237
0.851357 -3.346593 -0.877767
0.452802 -3.296546 -0.876492
0.552381 -3.144583 -0.873253
0.628272 -2.925893 -0.850146
0.725204 -2.848618 -0.868147
2.171062 -10.120014 -0.188977
1.972296 -7.808637 -0.224684
1.412637 -10.156601 -0.368842
1.796862 -10.186126 -0.468425
2.023533 -9.453250 -0.531521
2.248513 -8.914674 -0.593413
1.177863 -8.501239 -0.622576
1.400051 -7.958586 -0.663652
1.594251 -7.468805 -0.699193
1.765991 -7.011940 -0.733341
0.939295 -6.813488 -0.752770
1.131257 -6.452408 -0.779167
1.305680 -6.125803 -0.805583
1.455502 -5.786808 -0.826404
0.786334 -5.725351 -0.848127
0.992960 -5.682836 -0.901844
1.120276 -5.269482 -0.894462
1.217168 -4.841377 -0.879961
0.644725 -4.718724 -0.878993
0.776282 -4.459280 -0.879504
0.889398 -4.197174 -0.876552
0.992865 -3.948324 -0.873989
0.526644 -3.887877 -0.876046
0.641279 -3.700203 -0.875213
0.735820 -3.474217 -0.864528
0.843210 -3.357649 -0.879985
0.441399 -3.288335 -0.873945
0.543551 -3.151016 -0.874572
0.624070 -2.950393 -0.856704
0.717863 -2.856410 -0.869847
2.138970 -10.121736 -0.188886
2.517087 -10.095905 -0.290273
1.381470 -10.160887 -0.368842
1.764921 -10.187654 -0.468244
1.994521 -9.459413 -0.531521
2.222358 -8.926373 -0.593735
1.151374 -8.501847 -0.622359
1.376476 -7.967754 -0.664061
1.571124 -7.472687 -0.699102
1.738709 -6.994153 -0.730920
0.919582 -6.825204 -0.753749
1.110951 -6.452912 -0.778813
1.285658 -6.123956 -0.804818
1.437264 -5.789324 -0.826129
0.768107 -5.722833 -0.847401
0.974519 -5.680014 -0.900917
1.104104 -5.272894 -0.894462
1.204918 -4.855603 -0.881871
0.629725 -4.716780 -0.878267
0.763920 -4.469382 -0.881030
0.878318 -4.208515 -0.878353
0.981925 -3.956096 -0.875038
0.517019 -3.906890 -0.879968
0.628617 -3.694472 -0.873397
0.726944 -3.485019 -0.866657
0.831273 -3.353635 -0.878260
0.428543 -3.268580 -0.868341
0.533398 -3.149816 -0.873780
0.617762 -2.965478 -0.860530
0.709789 -2.861392 -0.870697
2.108518 -10.131187 -0.188941
2.487534 -10.109403 -0.290440
1.349369 -10.158143 -0.368591
1.732653 -10.187112 -0.467972
1.647788 -7.935485 -0.445606
2.191628 -8.919581 -0.592833
1.128556 -8.530059 -0.624167
1.351858 -7.970957 -0.663980
1.550412 -7.488198 -0.700105
1.717481 -7.000421 -0.731021
0.898638 -6.827993 -0.753749
1.091810 -6.460206 -0.779285
1.266864 -6.127871 -0.804818
1.420203 -5.796592 -0.826541
0.750160 -5.722220 -0.846966
0.957088 -5.682976 -0.900917
1.088520 -5.279155 -0.894953
1.188375 -4.852581 -0.880656
0.616777 -4.730392 -0.880445
0.750367 -4.472672 -0.881221
0.865403 -4.211190 -0.878353
0.968853 -3.955291 -0.874199
0.504905 -3.907490 -0.879750
0.617119 -3.695422 -0.873170
0.718008 -3.495798 -0.868785
0.815223 -3.332634 -0.872101
0.418759 -3.271798 -0.868850
0.521677 -3.139067 -0.870351
0.612333 -2.985263 -0.865722
0.698727 -2.854240 -0.867864
2.074817 -10.124875 -0.188703
1.922986 -7.919712 -0.227361
1.316270 -10.147369 -0.368051
1.699582 -10.181542 -0.467475
1.624635 -7.946373 -0.445936
2.163547 -8.923354 -0.592640
1.105064 -8.554253 -0.625687
1.326088 -7.967202 -0.663325
1.530216 -7.506580 -0.701382
1.696230 -7.006624 -0.731122
0.874899 -6.809027 -0.751355
1.073285 -6.471363 -0.780230
1.250827 -6.145336 -0.806604
1.400085 -5.791294 -0.825169
0.732224 -5.721550 -0.846530
0.939004 -5.681987 -0.900299
1.071141 -5.276669 -0.893970
1.175333 -4.863862 -0.882044
0.604372 -4.748846 -0.883530
0.736642 -4.474953 -0.881221
0.855587 -4.229190 -0.881556
0.959700 -3.970599 -0.876927
0.491816 -3.900306 -0.877789
0.606251 -3.700182 -0.873851
0.708242 -3.502746 -0.869968
0.799082 -3.310625 -0.865696
0.409079 -3.275946 -0.869614
0.515613 -3.162549 -0.876419
0.601649 -2.979585 -0.863536
0.688841 -2.851710 -0.866448
2.043942 -10.132173 -0.188722
1.901707 -7.938211 -0.227723
1.284002 -10.142436 -0.367728
1.665915 -10.171920 -0.466796
1.597490 -7.937615 -0.445167
2.135929 -8.928979 -0.592576
1.079688 -8.564530 -0.626193
1.300193 -7.962380 -0.662588
1.503652 -7.493665 -0.699740
1.674263 -7.009860 -0.730920
0.854871 -6.818584 -0.752117
1.054543 -6.481486 -0.781057
1.229630 -6.137474 -0.805073
1.380243 -5.786890 -0.823934
0.714054 -5.718861 -0.845804
0.919986 -5.675088 -0.898755
1.056687 -5.288637 -0.895445
1.163146 -4.878940 -0.884128
0.589436 -4.747750 -0.882986
0.723535 -4.481069 -0.881984
0.839738 -4.217381 -0.878554
0.949328 -3.981133 -0.878606
0.480562 -3.907609 -0.879097
0.596287 -3.710678 -0.875894
0.698820 -3.511574 -0.871624
0.792738 -3.329088 -0.869884
0.401481 -3.297344 -0.874964
0.507584 -3.174593 -0.879321
0.590255 -2.970094 -0.860257
0.684091 -2.870602 -0.871546
2.011484 -10.131531 -0.188594
1.878264 -7.947900 -0.227835
1.252635 -10.144344 -0.367656
1.632799 -10.165147 -0.466253
1.569832 -7.925828 -0.444234
2.108983 -8.937432 -0.592704
1.053164 -8.565823 -0.626048
1.275601 -7.965348 -0.662506
1.480655 -7.498243 -0.699740
1.655259 -7.025616 -0.732030
0.833947 -6.821174 -0.752117
1.035122 -6.487633 -0.781411
1.211754 -6.146083 -0.805711
1.363617 -5.795918 -0.824620
0.696028 -5.717096 -0.845223
0.903192 -5.681787 -0.899372
1.041408 -5.296694 -0.896264
1.145241 -4.870023 -0.881871
0.575340 -4.753441 -0.883712
0.710552 -4.488115 -0.882938
0.825854 -4.215130 -0.877553
0.931960 -3.962137 -0.873779
0.469501 -3.916817 -0.880840
0.585658 -3.717300 -0.877029
0.688043 -3.513701 -0.871624
0.782964 -3.333392 -0.870377
0.394325 -3.323527 -0.881586
0.497095 -3.171371 -0.878001
0.581878 -2.975668 -0.861350
0.675061 -2.871754 -0.871263
1.978475 -10.127842 -0.188411
1.853417 -7.951678 -0.227779
1.220432 -10.139209 -0.367333
1.599896 -10.159254 -0.465755
1.541689 -7.911006 -0.443136
2.082685 -8.948720 -0.593026
1.026524 -8.566042 -0.625831
1.250849 -7.967254 -0.662343
1.454795 -7.488087 -0.698373
1.635724 -7.039383 -0.732938
0.813369 -6.826662 -0.752443
1.015214 -6.490778 -0.781411
1.192892 -6.149772 -0.805711
1.345157 -5.797180 -0.824209
0.678368 -5.718222 -0.845078
0.885756 -5.684531 -0.899372
1.025528 -5.301801 -0.896591
1.135857 -4.897497 -0.886211
0.562251 -4.767880 -0.886071
0.697682 -4.496095 -0.884082
0.813289 -4.219568 -0.877953
0.922010 -3.974502 -0.875878
0.457029 -3.914361 -0.879968
0.572764 -3.709455 -0.874759
0.679833 -3.529152 -0.874935
0.772078 -3.332946 -0.869638
0.380020 -3.289178 -0.872162
0.484873 -3.156673 -0.873516
0.570202 -2.964214 -0.857524
0.666464 -2.874746 -0.871546
1.942865 -10.110300 -0.187973
1.828118 -7.953430 -0.227667
1.188504 -10.135958 -0.367081
1.568415 -10.162139 -0.465665
1.492409 -7.785274 -0.435834
2.055890 -8.957985 -0.593220
0.999198 -8.560236 -0.625180
1.225490 -7.965145 -0.661852
1.431441 -7.490559 -0.698191
1.617008 -7.056975 -0.734249
0.792880 -6.833075 -0.752879
0.993942 -6.485028 -0.780348
1.174019 -6.153403 -0.805711
1.331121 -5.817695 -0.826541
0.660708 -5.719293 -0.844933
0.868014 -5.685269 -0.899064
1.008151 -5.299107 -0.895608
1.124340 -4.916320 -0.888988
0.547172 -4.765674 -0.885345
0.684328 -4.501125 -0.884654
0.802164 -4.231670 -0.879955
0.911992 -3.986843 -0.877977
0.445348 -3.918654 -0.880622
0.561673 -3.713120 -0.875213
0.666471 -3.517856 -0.871624
0.765086 -3.349471 -0.873333
0.372412 -3.312431 -0.878020
0.475043 -3.157193 -0.873253
0.570046 -3.013208 -0.871188
0.658710 -2.881451 -0.872963
1.911095 -10.112283 -0.187900
1.803487 -7.958026 -0.227640
1.157062 -10.136578 -0.366973
1.536484 -10.161965 -0.465439
1.469072 -7.792759 -0.435999
2.029058 -8.967171 -0.593413
0.973156 -8.565242 -0.625325
1.201939 -7.974779 -0.662343
1.409925 -7.502745 -0.698920
1.593816 -7.055109 -0.733543
0.772470 -6.840414 -0.753423
0.974483 -6.490992 -0.780703
1.156233 -6.162824 -0.806476
1.314138 -5.825616 -0.827090
0.642053 -5.711461 -0.843481
0.850567 -5.687905 -0.899064
0.992796 -5.307024 -0.896427
1.107952 -4.913982 -0.887947
0.533859 -4.779058 -0.887523
0.671816 -4.511942 -0.886371
0.785767 -4.215811 -0.876152
0.893519 -3.961963 -0.871890
0.432252 -3.910301 -0.878443
0.548994 -3.706156 -0.873170
0.660301 -3.544720 -0.877774
0.749057 -3.326274 -0.866681
0.359726 -3.290487 -0.871907
0.463527 -3.146230 -0.869823
0.557281 -2.996029 -0.865722
0.647336 -2.872232 -0.869564
1.881524 -10.125963 -0.188046
1.778846 -7.962547 -0.227612
1.125848 -10.139087 -0.366937
1.504276 -10.159713 -0.465122
1.449161 -7.818828 -0.437207
2.002190 -8.976275 -0.593606
0.947092 -8.570170 -0.625470
1.181687 -8.007023 -0.664716
1.385453 -7.499201 -0.698191
1.568703 -7.044428 -0.731929
0.751047 -6.838800 -0.752987
0.955142 -6.497881 -0.781175
1.137680 -6.168294 -0.806731
1.300774 -5.849926 -0.829971
0.626785 -5.734058 -0.846530
0.832827 -5.688532 -0.898755
0.977223 -5.313926 -0.897082
1.092657 -4.916397 -0.887773
0.519831 -4.786540 -0.888612
0.656838 -4.506211 -0.884845
0.775301 -4.231693 -0.878954
0.886239 -3.986637 -0.876717
0.420253 -3.911609 -0.878443
0.538879 -3.716497 -0.875213
0.646973 -3.533348 -0.874462
0.747460 -3.367349 -0.876782
0.348710 -3.282921 -0.869614
0.456350 -3.164821 -0.874572
0.549817 -3.007187 -0.868455
0.638105 -2.872332 -0.868997
1.850628 -10.132670 -0.188064
1.753979 -7.966014 -0.227556
1.095165 -10.146468 -0.367081
1.472670 -10.161314 -0.464986
1.730635 -9.500066 -0.530918
1.975927 -8.988224 -0.593993
0.920689 -8.572044 -0.625397
1.155406 -7.998773 -0.663734
1.362261 -7.502436 -0.698099
1.545164 -7.040462 -0.731021
0.729113 -6.832176 -0.752008
0.935061 -6.499798 -0.781057
1.119281 -6.174683 -0.807114
1.277732 -5.830667 -0.826678
0.608250 -5.727100 -0.845223
0.816071 -5.695951 -0.899527
0.960740 -5.315928 -0.896919
1.078200 -4.922612 -0.888294
0.505866 -4.794958 -0.889882
0.641624 -4.498487 -0.882938
0.760405 -4.223445 -0.876752
0.873586 -3.987427 -0.876297
0.408149 -3.911910 -0.878225
0.528432 -3.724882 -0.876802
0.641292 -3.564005 -0.881558
0.732983 -3.350690 -0.871855
0.340719 -3.304175 -0.874964
0.449603 -3.187219 -0.880376
0.538547 -2.997498 -0.865176
0.631136 -2.882708 -0.871546
1.818473 -10.132396 -0.187955
2.196250 -10.122452 -0.288962
1.063302 -10.142822 -0.366829
1.441208 -10.163807 -0.464896
1.701833 -9.507298 -0.531027
1.947497 -8.990342 -0.593735
0.893144 -8.562925 -0.624529
1.131977 -8.010175 -0.664389
1.338188 -7.500698 -0.697552
1.524399 -7.049059 -0.731424
0.707636 -6.829437 -0.751464
0.915116 -6.502636 -0.781057
1.100332 -6.178088 -0.807114
1.262556 -5.847147 -0.828462
0.590778 -5.729923 -0.845368
0.799827 -5.707234 -0.900917
0.943909 -5.315936 -0.896427
1.061431 -4.918195 -0.886905
0.492756 -4.812140 -0.892786
0.632295 -4.532518 -0.889232
0.747956 -4.228652 -0.877353
0.866300 -4.013026 -0.881335
0.396047 -3.912172 -0.878007
0.517671 -3.731309 -0.877937
0.626803 -3.545863 -0.876591
0.722087 -3.350081 -0.871116
0.331254 -3.311941 -0.876747
0.438109 -3.176162 -0.876946
0.528847 -2.996294 -0.864356
0.621683 -2.881818 -0.870697
1.789983 -10.152697 -0.188229
2.161215 -10.110569 -0.288433
1.029651 -10.121182 -0.365931
1.409196 -10.162244 -0.464624
1.672312 -9.510506 -0.530918
1.919281 -8.993347 -0.593542
0.865965 -8.556694 -0.623878
1.107397 -8.013610 -0.664389
1.313623 -7.495940 -0.696732
1.502972 -7.054675 -0.731525
0.686680 -6.831575 -0.751464
0.895974 -6.511316 -0.781766
1.080518 -6.176549 -0.806476
1.244611 -5.850993 -0.828462
0.573098 -5.730724 -0.845223
0.781375 -5.702808 -0.899836
0.927426 -5.317836 -0.896264
1.045723 -4.918539 -0.886384
0.476533 -4.798950 -0.890064
0.616397 -4.519846 -0.886371
0.733973 -4.225136 -0.876152
0.853170 -4.011839 -0.880495
0.384806 -3.921139 -0.879750
0.505436 -3.727089 -0.876575
0.618082 -3.560214 -0.879666
0.710799 -3.347540 -0.869884
0.320252 -3.304279 -0.874454
0.425785 -3.158372 -0.871670
0.521459 -3.008328 -0.867362
0.613835 -2.888402 -0.872113
1.754733 -10.134496 -0.187791
2.132039 -10.125956 -0.288684
0.998300 -10.121310 -0.365823
1.378683 -10.171468 -0.464851
1.643296 -9.516577 -0.530972
1.891476 -8.998217 -0.593477
0.839223 -8.554347 -0.623516
1.082939 -8.017958 -0.664471
1.292478 -7.510731 -0.697735
1.481322 -7.059253 -0.731525
0.666200 -6.838597 -0.752008
0.875067 -6.507145 -0.780939
1.060556 -6.173970 -0.805711
1.227670 -5.859631 -0.829148
0.555609 -5.733440 -0.845368
0.762826 -5.697345 -0.898600
0.911107 -5.320656 -0.896264
1.033050 -4.933291 -0.888467
0.461525 -4.797453 -0.889519
0.603435 -4.528527 -0.887706
0.721831 -4.232196 -0.877152
0.835246 -3.987643 -0.874618
0.372312 -3.917443 -0.878661
0.493999 -3.728623 -0.876575
0.605850 -3.554431 -0.877774
0.700923 -3.351603 -0.870377
0.311559 -3.320650 -0.878530
0.419871 -3.188353 -0.879584
0.516584 -3.035518 -0.874740
0.604578 -2.888394 -0.871546
1.724973 -10.147717 -0.187937
2.100760 -10.131470 -0.288656
0.957644 -10.023847 -0.362192
1.345503 -10.160796 -0.464172
1.613758 -9.519605 -0.530863
1.863456 -9.002023 -0.593348
0.813163 -8.558868 -0.623661
1.058205 -8.020254 -0.664389
1.270258 -7.519570 -0.698191
1.460261 -7.066688 -0.731828
0.645870 -6.847536 -0.752770
0.853288 -6.496015 -0.779285
1.041610 -6.177195 -0.805711
1.211088 -5.870161 -0.830108
0.538201 -5.737088 -0.845659
0.744190 -5.690842 -0.897210
0.894943 -5.324399 -0.896427
1.025269 -4.972124 -0.894891
0.446804 -4.798846 -0.889519
0.590552 -4.538145 -0.889232
0.711108 -4.247919 -0.879955
0.825576 -4.002635 -0.877347
0.359845 -3.913708 -0.877571
0.480308 -3.712735 -0.872489
0.597027 -3.568731 -0.880849
0.692005 -3.360382 -0.872101
0.301370 -3.321590 -0.878530
0.408981 -3.181016 -0.877210
0.499821 -2.992495 -0.861897
0.595714 -2.890236 -0.871546
1.689883 -10.129293 -0.187498
2.068668 -10.132970 -0.288516
0.853295 -9.230650 -0.333435
1.314837 -10.168838 -0.464353
1.585692 -9.531405 -0.531247
1.836228 -9.009653 -0.593477
0.787084 -8.563308 -0.623805
1.033849 -8.025440 -0.664553
1.247508 -7.525397 -0.698373
1.438574 -7.071135 -0.731828
0.625130 -6.852455 -0.753096
0.829945 -6.472010 -0.776097
1.022330 -6.178404 -0.805456
1.193665 -5.876761 -0.830519
0.521581 -5.749551 -0.847256
0.726477 -5.691138 -0.896901
0.878283 -5.325173 -0.896100
1.010990 -4.980072 -0.895759
0.432432 -4.804112 -0.890245
0.578235 -4.552595 -0.891712
0.697596 -4.247181 -0.879354
0.813292 -4.005149 -0.877347
0.349305 -3.931320 -0.881276
0.468793 -3.713225 -0.872262
0.580410 -3.536029 -0.872333
0.684388 -3.375787 -0.875550
0.293879 -3.353326 -0.886681
0.401381 -3.199483 -0.881959
0.497482 -3.035783 -0.873920
0.583029 -2.873252 -0.865881
1.657184 -10.124563 -0.187316
2.033435 -10.118689 -0.287931
0.824705 -9.230238 -0.333328
1.283508 -10.171834 -0.464308
1.552421 -9.511589 -0.529874
1.700032 -8.474173 -0.557858
0.761161 -8.569656 -0.624095
1.010465 -8.038463 -0.665371
1.223775 -7.525257 -0.698008
1.418632 -7.084294 -0.732736
0.604365 -6.857312 -0.753423
0.809962 -6.473540 -0.775978
1.002893 -6.178575 -0.805073
1.174464 -5.874567 -0.829696
0.504457 -5.757038 -0.848127
0.709136 -5.694320 -0.897056
0.860523 -5.319078 -0.894626
0.992040 -4.964802 -0.892460
0.418884 -4.819132 -0.892786
0.566075 -4.568961 -0.894573
0.683939 -4.245432 -0.878554
0.801000 -4.007625 -0.877347
0.337492 -3.935290 -0.881930
0.459660 -3.733011 -0.876575
0.568323 -3.530119 -0.870441
0.674408 -3.379772 -0.876043
0.280331 -3.315669 -0.876492
0.390509 -3.192082 -0.879584
0.486792 -3.028747 -0.871461
0.577029 -2.889134 -0.870130
1.626431 -10.131573 -0.187352
1.997145 -10.098403 -0.287178
0.796126 -9.229737 -0.333220
1.251197 -10.166800 -0.463901
1.525127 -9.528138 -0.530533
1.545686 -7.829275 -0.515090
0.735122 -8.574933 -0.624312
0.985920 -8.042514 -0.665453
1.199271 -7.520126 -0.697188
1.397083 -7.089590 -0.732837
0.582819 -6.853191 -0.752770
0.792623 -6.496694 -0.778459
0.982997 -6.175746 -0.804308
1.157009 -5.881059 -0.830108
0.486459 -5.754615 -0.847546
0.691782 -5.697450 -0.897210
0.845437 -5.329487 -0.895936
0.975473 -4.961058 -0.891245
0.403686 -4.815494 -0.891879
0.551938 -4.569701 -0.894382
0.670911 -4.247510 -0.878554
0.788324 -4.008145 -0.876927
0.326141 -3.945061 -0.883891
0.447509 -3.728602 -0.875213
0.558702 -3.539524 -0.872333
0.665903 -3.391335 -0.878506
0.270393 -3.319404 -0.877256
0.379572 -3.183688 -0.876946
0.476899 -3.026426 -0.870368
0.567978 -2.889950 -0.869847
1.595340 -10.136516 -0.187352
1.965009 -10.098596 -0.287010
0.767640 -9.230145 -0.333148
1.218691 -10.159680 -0.463403
1.496971 -9.539677 -0.530918
1.521278 -7.832021 -0.514961
0.709303 -8.583112 -0.624746
0.962188 -8.053418 -0.666108
1.179270 -7.543447 -0.699011
1.374758 -7.090912 -0.732534
0.561710 -6.853955 -0.752661
0.774094 -6.510928 -0.779876
0.966033 -6.191472 -0.805966
1.136138 -5.869993 -0.828050
0.468561 -5.753122 -0.847111
0.674067 -5.697583 -0.896901
0.828628 -5.329132 -0.895445
0.959687 -4.961126 -0.890724
0.389623 -4.825532 -0.893512
0.537342 -4.566498 -0.893428
0.658027 -4.250517 -0.878754
0.775466 -4.007665 -0.876297
0.312643 -3.928531 -0.879968
0.437764 -3.744467 -0.878617
0.551257 -3.563306 -0.877774
0.654944 -3.390508 -0.877767
0.258319 -3.296117 -0.870888
0.370693 -3.192502 -0.879057
0.469374 -3.039283 -0.873647
0.560201 -2.897328 -0.871546
1.563473 -10.136422 -0.187261
1.933266 -10.100650 -0.286899
0.738840 -9.226479 -0.332932
1.186240 -10.152457 -0.462905
1.468607 -9.550147 -0.531247
1.505295 -7.878799 -0.517731
0.683205 -8.588230 -0.624963
0.937706 -8.058311 -0.666271
1.157177 -7.553920 -0.699649
1.352997 -7.095096 -0.732534
0.540211 -6.849701 -0.752008
0.754115 -6.513272 -0.779876
0.946584 -6.191465 -0.805583
1.117753 -5.871505 -0.827776
0.450135 -5.744669 -0.845659
0.656584 -5.699624 -0.896901
0.811828 -5.328723 -0.894953
0.945015 -4.966949 -0.891245
0.374359 -4.820822 -0.892423
0.520536 -4.543744 -0.888660
0.646746 -4.264140 -0.881156
0.765909 -4.024432 -0.879446
0.299919 -3.920713 -0.878007
0.426825 -3.750631 -0.879752
0.540613 -3.566902 -0.878247
0.644539 -3.392501 -0.877767
0.249585 -3.315215 -0.875728
0.359055 -3.177330 -0.874572
0.458176 -3.028344 -0.870095
0.551847 -2.901860 -0.872396
1.531023 -10.132274 -0.187097
1.904302 -10.117339 -0.287206
0.710147 -9.223721 -0.332752
1.154636 -10.152078 -0.462724
1.440639 -9.563494 -0.531741
1.483143 -7.894169 -0.518439
0.658222 -8.608186 -0.626265
0.912979 -8.061151 -0.666272
1.134588 -7.561374 -0.700014
1.330673 -7.096281 -0.732231
0.519344 -6.853308 -0.752226
0.732906 -6.504701 -0.778577
0.928025 -6.197283 -0.805966
1.100099 -5.876854 -0.828050
0.430875 -5.724317 -0.842464
0.638874 -5.699648 -0.896592
0.796059 -5.335091 -0.895608
0.930496 -4.973697 -0.891939
0.359641 -4.822929 -0.892605
0.506811 -4.547271 -0.889041
0.633085 -4.262227 -0.880355
0.750681 -4.011387 -0.876088
0.289032 -3.937189 -0.881494
0.413816 -3.738371 -0.876575
0.528241 -3.558933 -0.875881
0.631992 -3.383030 -0.874811
0.241084 -3.339114 -0.881841
0.347198 -3.159241 -0.869295
0.446346 -3.012607 -0.865176
0.544528 -2.912023 -0.874945
1.498027 -10.124065 -0.186860
1.872344 -10.118219 -0.287066
0.682508 -9.234825 -0.333076
1.122935 -10.150607 -0.462498
1.412166 -9.573795 -0.532070
1.467255 -7.943823 -0.521402
0.631371 -8.604197 -0.625831
0.887698 -8.058961 -0.665862
1.111819 -7.567775 -0.700287
1.307272 -7.091524 -0.731323
0.498604 -6.858835 -0.752661
0.712514 -6.502970 -0.778104
0.909727 -6.205007 -0.806604
1.081884 -5.879227 -0.827913
0.413382 -5.726599 -0.842610
0.620850 -5.696670 -0.895820
0.780685 -5.344341 -0.896755
0.916123 -4.981372 -0.892807
0.345193 -4.828914 -0.893512
0.490532 -4.527333 -0.884845
0.623107 -4.285480 -0.884759
0.738725 -4.015594 -0.876507
0.278115 -3.954607 -0.885198
0.404220 -3.757053 -0.880660
0.516063 -3.551883 -0.873753
0.619860 -3.375421 -0.872348
0.231772 -3.353343 -0.885407
0.340372 -3.187147 -0.876682
0.437377 -3.015866 -0.865722
0.534205 -2.906134 -0.872679
1.463951 -10.107834 -0.186476
1.840936 -10.121949 -0.287010
0.654455 -9.240863 -0.333220
1.091041 -10.147053 -0.462181
1.382788 -9.578082 -0.532070
1.638944 -9.028351 -0.592254
0.603782 -8.589180 -0.624601
0.862120 -8.053718 -0.665207
1.088454 -7.570165 -0.700196
1.285332 -7.094522 -0.731222
0.477283 -6.856366 -0.752226
0.692350 -6.503151 -0.777868
0.891250 -6.211696 -0.807114
1.064723 -5.887392 -0.828599
0.396835 -5.742646 -0.844788
0.603578 -5.700513 -0.896129
0.762889 -5.336946 -0.895117
0.905566 -5.010325 -0.897494
0.330578 -4.832893 -0.894057
0.475920 -4.521984 -0.883510
0.610923 -4.294162 -0.886160
0.727097 -4.021690 -0.877347
0.265916 -3.954468 -0.884980
0.390263 -3.735028 -0.875213
0.505574 -3.556335 -0.874462
0.611567 -3.388752 -0.875304
0.222312 -3.366583 -0.888718
0.326613 -3.149799 -0.866129
0.430150 -3.031480 -0.869821
0.528355 -2.924748 -0.877778
1.436300 -10.136036 -0.186914
1.810752 -10.132469 -0.287150
0.625967 -9.240834 -0.333148
1.059594 -10.147372 -0.462046
1.353117 -9.580302 -0.531961
1.612815 -9.042178 -0.592833
0.576358 -8.575069 -0.623444
0.835965 -8.042447 -0.664061
1.064114 -7.565579 -0.699467
1.265653 -7.110186 -0.732433
0.457434 -6.875651 -0.754184
0.674131 -6.522036 -0.779876
0.872326 -6.215383 -0.807242
1.047523 -5.895508 -0.829285
0.379410 -5.746798 -0.845223
0.585884 -5.700373 -0.895820
0.745966 -5.335353 -0.894462
0.891223 -5.018897 -0.898536
0.314147 -4.809352 -0.889519
0.461147 -4.514633 -0.881793
0.595045 -4.276607 -0.882157
0.716465 -4.033529 -0.879446
0.254220 -3.962083 -0.886506
0.381258 -3.760431 -0.880887
0.496935 -3.574230 -0.878483
0.600829 -3.388703 -0.874811
0.211861 -3.365319 -0.888209
0.319555 -3.176699 -0.873253
0.418467 -3.015635 -0.864903
0.515357 -2.903692 -0.870980
1.400393 -10.105732 -0.186275
1.779312 -10.136008 -0.287094
0.597355 -9.238722 -0.333004
1.028356 -10.149580 -0.462000
1.322899 -9.578474 -0.531631
1.583516 -9.038238 -0.592254
0.550622 -8.585756 -0.624095
0.810687 -8.039024 -0.663570
1.040763 -7.567822 -0.699376
1.241434 -7.100315 -0.731021
0.436652 -6.881983 -0.754728
0.654514 -6.528025 -0.780348
0.852579 -6.213118 -0.806604
1.032155 -5.914306 -0.831480
0.362337 -5.756822 -0.846530
0.568099 -5.699194 -0.895357
0.729727 -5.338594 -0.894626
0.878021 -5.034220 -0.900793
0.299757 -4.816182 -0.890608
0.448455 -4.527749 -0.884082
0.584695 -4.298800 -0.886360
0.704760 -4.039560 -0.880285
0.240457 -3.936542 -0.880622
0.369910 -3.763521 -0.881341
0.483743 -3.559370 -0.874462
0.592425 -3.401989 -0.877767
0.199454 -3.331202 -0.879039
0.308684 -3.166144 -0.870087
0.410765 -3.028343 -0.868182
0.509246 -2.921321 -0.875795
1.371127 -10.122861 -0.186513
1.747358 -10.136494 -0.286955
0.568947 -9.239513 -0.332968
0.997213 -10.152687 -0.462000
1.294308 -9.588425 -0.531961
1.558487 -9.058789 -0.593284
0.523975 -8.582426 -0.623733
0.786408 -8.045442 -0.663898
1.018734 -7.579862 -0.700196
1.220655 -7.109974 -0.731626
0.414817 -6.871383 -0.753423
0.634100 -6.526049 -0.779876
0.831800 -6.202924 -0.804945
1.012500 -5.908658 -0.830245
0.344378 -5.752968 -0.845804
0.550326 -5.697960 -0.894893
0.712823 -5.336896 -0.893970
0.861242 -5.029125 -0.899404
0.285212 -4.821006 -0.891334
0.436344 -4.547670 -0.887706
0.566212 -4.260754 -0.878153
0.691207 -4.034958 -0.878816
0.227870 -3.928493 -0.878661
0.358269 -3.763669 -0.881114
0.472820 -3.560838 -0.874462
0.579535 -3.389460 -0.874072
0.189727 -3.340488 -0.881331
0.295252 -3.127704 -0.859270
0.403368 -3.043893 -0.872281
0.499149 -2.916252 -0.873812
1.340458 -10.129993 -0.186567
1.714417 -10.130965 -0.286648
0.540715 -9.243210 -0.333040
0.965303 -10.147743 -0.461639
1.267757 -9.614129 -0.533168
1.530189 -9.060575 -0.593091
0.498969 -8.606895 -0.625397
0.762191 -8.052777 -0.664307
0.995993 -7.586901 -0.700561
1.197844 -7.107799 -0.731021
0.392768 -6.855752 -0.751573
0.613238 -6.519066 -0.778813
0.811220 -6.193646 -0.803415
0.995682 -5.919551 -0.831342
0.325436 -5.731278 -0.842464
0.532291 -5.693719 -0.893967
0.696063 -5.336124 -0.893479
0.839768 -4.995809 -0.892981
0.270200 -4.817931 -0.890608
0.421754 -4.542145 -0.886371
0.556920 -4.291619 -0.884158
0.678987 -4.038024 -0.879026
0.215763 -3.928199 -0.878443
0.346632 -3.763781 -0.880887
0.460769 -3.553600 -0.872333
0.569454 -3.393134 -0.874565
0.179166 -3.335260 -0.879803
0.291619 -3.193914 -0.877210
0.394521 -3.048932 -0.873374
0.490517 -2.919661 -0.874379
1.310398 -10.141991 -0.186713
1.682672 -10.132233 -0.286536
0.512797 -9.252809 -0.333328
0.933617 -10.144688 -0.461367
1.238765 -9.621934 -0.533388
1.502711 -9.067196 -0.593220
0.473053 -8.617348 -0.626048
0.737936 -8.060040 -0.664716
0.973978 -7.599799 -0.701473
1.176357 -7.113403 -0.731222
0.371894 -6.859902 -0.751899
0.591705 -6.504105 -0.776805
0.791837 -6.193154 -0.803032
0.974774 -5.905964 -0.829010
0.307533 -5.726322 -0.841593
0.514197 -5.688437 -0.892885
0.679938 -5.340191 -0.893807
0.823636 -4.993504 -0.892113
0.256406 -4.837395 -0.894057
0.408519 -4.551239 -0.887897
0.543628 -4.292335 -0.883958
0.665641 -4.034300 -0.877767
0.204216 -3.938589 -0.880622
0.335083 -3.764826 -0.880887
0.450597 -3.560780 -0.873753
0.562506 -3.415904 -0.879985
0.168688 -3.330965 -0.878530
0.282158 -3.198637 -0.878265
0.384683 -3.046311 -0.872281
0.483586 -2.933454 -0.878061
1.278901 -10.142987 -0.186659
1.649972 -10.127481 -0.286257
0.484877 -9.263320 -0.333651
0.902046 -10.142530 -0.461141
1.209239 -9.625689 -0.533388
1.475206 -9.073734 -0.593348
0.446407 -8.614775 -0.625759
0.713117 -8.061273 -0.664634
0.950410 -7.600775 -0.701290
1.154687 -7.117961 -0.731323
0.351253 -6.868954 -0.752770
0.572444 -6.513804 -0.777750
0.773447 -6.200476 -0.803670
0.955226 -5.900126 -0.827776
0.290013 -5.728226 -0.841738
0.497173 -5.694909 -0.893658
0.663916 -5.345189 -0.894298
0.808784 -4.998923 -0.892634
0.241613 -4.839141 -0.894238
0.394131 -4.547581 -0.886943
0.530817 -4.296900 -0.884559
0.653729 -4.039218 -0.878396
0.192084 -3.938222 -0.880404
0.323614 -3.766807 -0.881114
0.438599 -3.553467 -0.871624
0.552796 -3.422397 -0.881216
0.158514 -3.332433 -0.878784
0.272998 -3.207176 -0.880376
0.377570 -3.065616 -0.877473
0.472900 -2.924510 -0.874945
1.247289 -10.142894 -0.186586
1.618578 -10.130522 -0.286202
0.456800 -9.271751 -0.333903
0.870327 -10.138282 -0.460824
1.180431 -9.635300 -0.533717
1.441234 -9.039783 -0.590837
0.419538 -8.607138 -0.625108
0.687619 -8.054486 -0.663898
0.926846 -7.601678 -0.701108
1.133469 -7.125400 -0.731727
0.331275 -6.892836 -0.755272
0.551786 -6.507614 -0.776805
0.756696 -6.221526 -0.806094
0.936654 -5.900094 -0.827364
0.272579 -5.732054 -0.842174
0.480362 -5.704284 -0.894893
0.648226 -5.353077 -0.895281
0.793290 -5.000409 -0.892460
0.226121 -4.826107 -0.891697
0.380259 -4.549747 -0.887134
0.517163 -4.294617 -0.883758
0.640721 -4.037342 -0.877557
0.180312 -3.945618 -0.881930
0.312378 -3.771664 -0.882022
0.431989 -3.590489 -0.880376
0.538352 -3.399189 -0.874811
0.149321 -3.356089 -0.884898
0.258189 -3.147434 -0.863755
0.370227 -3.083952 -0.882392
0.460471 -2.904161 -0.868431
1.216165 -10.146673 -0.186586
1.587181 -10.133464 -0.286146
0.428491 -9.276104 -0.334011
0.839466 -10.143891 -0.460960
1.150154 -9.632927 -0.533388
1.411336 -9.030359 -0.589935
0.392766 -8.600414 -0.624529
0.664131 -8.071457 -0.665126
0.902698 -7.597563 -0.700470
1.111297 -7.126878 -0.731525
0.310261 -6.896799 -0.755598
0.529797 -6.484533 -0.773852
0.737721 -6.224803 -0.806221
0.917787 -5.898046 -0.826678
0.255124 -5.735829 -0.842610
0.462859 -5.705731 -0.894893
0.631916 -5.356020 -0.895445
0.778853 -5.008658 -0.893502
0.211873 -4.839550 -0.894057
0.366692 -4.555785 -0.888088
0.503072 -4.288399 -0.882157
0.628782 -4.042187 -0.878186
0.168497 -3.952978 -0.883455
0.300805 -3.772605 -0.882022
0.418144 -3.567672 -0.874462
0.525394 -3.384543 -0.870623
0.138064 -3.333343 -0.878784
0.250885 -3.178020 -0.871934
0.358529 -3.065965 -0.876926
0.450528 -2.898926 -0.866448
1.183291 -10.135460 -0.186312
1.555781 -10.136310 -0.286090
0.400073 -9.278373 -0.334047
0.748206 -9.391587 -0.426667
1.120365 -9.634427 -0.533278
1.383776 -9.035633 -0.589999
0.365869 -8.589621 -0.623661
0.639365 -8.073456 -0.665126
0.880186 -7.607222 -0.701108
1.090328 -7.136155 -0.732131
0.288975 -6.894739 -0.755272
0.511923 -6.511867 -0.776923
0.719075 -6.230978 -0.806731
0.899239 -5.897896 -0.826267
0.237689 -5.740538 -0.843190
0.445506 -5.709094 -0.895202
0.616043 -5.362834 -0.896264
0.763631 -5.011997 -0.893675
0.196865 -4.836247 -0.893331
0.354607 -4.581356 -0.892856
0.490691 -4.296736 -0.883558
0.618293 -4.056662 -0.880915
0.156678 -3.961278 -0.885198
0.289676 -3.779337 -0.883384
0.409510 -3.589210 -0.879429
0.516902 -3.398595 -0.873826
0.127614 -3.327953 -0.877256
0.239528 -3.157615 -0.866129
0.346619 -3.045067 -0.870641
0.442354 -2.905036 -0.867864
1.151738 -10.135068 -0.186239
1.524379 -10.139058 -0.286034
0.371286 -9.271568 -0.333759
0.712448 -9.303196 -0.422550
1.090914 -9.638811 -0.533333
1.357677 -9.050692 -0.590708
0.340696 -8.620601 -0.625831
0.615047 -8.081342 -0.665617
0.856509 -7.606918 -0.700834
1.069902 -7.149306 -0.733140
0.267860 -6.896586 -0.755381
0.492765 -6.524299 -0.778222
0.700066 -6.234141 -0.806859
0.879824 -5.891810 -0.825032
0.220493 -5.752116 -0.844788
0.427398 -5.702552 -0.893967
0.600245 -5.370581 -0.897246
0.747234 -5.007498 -0.892460
0.182248 -4.842725 -0.894420
0.339532 -4.568717 -0.890186
0.477939 -4.302117 -0.884359
0.604978 -4.052738 -0.879656
0.144560 -3.962715 -0.885416
0.277866 -3.777294 -0.882703
0.398389 -3.589484 -0.879193
0.507044 -3.404000 -0.874811
0.118017 -3.345725 -0.881841
0.232990 -3.201627 -0.878001
0.336428 -3.038468 -0.868455
0.434854 -2.915865 -0.870697
1.119431 -10.127623 -0.186038
1.492683 -10.139732 -0.285923
0.342617 -9.266672 -0.333543
0.684122 -9.308328 -0.422686
1.067455 -9.697693 -0.536407
1.329903 -9.054815 -0.590708
0.314283 -8.622602 -0.625904
0.590396 -8.085179 -0.665780
0.831866 -7.597630 -0.699740
1.046954 -7.145664 -0.732433
0.246451 -6.890422 -0.754619
0.471455 -6.507952 -0.776097
0.679860 -6.226399 -0.805583
0.865613 -5.920945 -0.828736
0.202706 -5.748810 -0.844207
0.410113 -5.706793 -0.894430
0.583126 -5.366513 -0.896264
0.732294 -5.012691 -0.892981
0.167492 -4.846209 -0.894964
0.325583 -4.570716 -0.890377
0.464948 -4.305511 -0.884759
0.590280 -4.039096 -0.876297
0.133053 -3.982648 -0.889775
0.266481 -3.781043 -0.883384
0.388105 -3.597451 -0.880849
0.498276 -3.417048 -0.877767
0.107099 -3.325774 -0.876492
0.224173 -3.216760 -0.881959
0.328957 -3.056701 -0.873374
0.428677 -2.936165 -0.876361
1.087500 -10.123057 -0.185892
1.461568 -10.144263 -0.285923
0.313983 -9.261687 -0.333328
0.653878 -9.286466 -0.421600
1.045239 -9.771413 -0.540305
1.304105 -9.072680 -0.591609
0.287629 -8.617545 -0.625470
0.565797 -8.089936 -0.666026
0.807394 -7.589254 -0.698738
1.023332 -7.137024 -0.731222
0.225538 -6.898100 -0.755381
0.452311 -6.521256 -0.777514
0.658871 -6.210703 -0.803287
0.845339 -5.908864 -0.826678
0.184877 -5.743472 -0.843336
0.392806 -5.710981 -0.894893
0.566348 -5.365334 -0.895772
0.716912 -5.014914 -0.892981
0.152561 -4.844735 -0.894601
0.311960 -4.577570 -0.891521
0.453066 -4.319585 -0.887361
0.579823 -4.054438 -0.879236
0.120656 -3.977185 -0.888467
0.254945 -3.782814 -0.883611
0.375648 -3.585097 -0.877537
0.487791 -3.418560 -0.877767
0.097683 -3.353152 -0.883624
0.213918 -3.211658 -0.880376
0.318878 -3.050999 -0.871461
0.420616 -2.944112 -0.878344
1.056230 -10.124357 -0.185855
1.429183 -10.139791 -0.285672
0.285659 -9.265603 -0.333435
0.624914 -9.281452 -0.421284
1.016493 -9.786492 -0.540964
1.273763 -9.058851 -0.590450
0.261280 -8.621378 -0.625687
0.541107 -8.093622 -0.666190
0.785028 -7.600610 -0.699558
0.999911 -7.129293 -0.730113
0.203756 -6.877893 -0.753096
0.431120 -6.504778 -0.775388
0.639204 -6.206775 -0.802522
0.830090 -5.932031 -0.829559
0.167255 -5.744012 -0.843336
0.375413 -5.714131 -0.895202
0.550891 -5.376859 -0.897410
0.701660 -5.018065 -0.893155
0.137781 -4.848129 -0.895146
0.298042 -4.580465 -0.891902
0.439117 -4.314131 -0.885960
0.566704 -4.051357 -0.878186
0.108321 -3.972658 -0.887378
0.242838 -3.775804 -0.881795
0.365631 -3.595898 -0.879902
0.475693 -3.408522 -0.874811
0.087647 -3.363103 -0.886171
0.203880 -3.209411 -0.879584
0.307381 -3.030908 -0.865449
0.413971 -2.962485 -0.883443
1.025063 -10.126555 -0.185837
1.395884 -10.128284 -0.285226
0.257564 -9.278423 -0.333867
0.596116 -9.278340 -0.421057
0.985763 -9.782610 -0.540580
1.249091 -9.085455 -0.591931
0.234883 -8.624133 -0.625831
0.516718 -8.102206 -0.666763
0.762202 -7.607938 -0.700014
0.978845 -7.138240 -0.730718
0.182258 -6.863580 -0.751464
0.411976 -6.518953 -0.776923
0.620455 -6.211668 -0.802904
0.811350 -5.930624 -0.829010
0.149580 -5.742520 -0.843045
0.357572 -5.710325 -0.894430
0.535367 -5.388341 -0.899048
0.686928 -5.025073 -0.894023
0.123156 -4.858359 -0.896961
0.283441 -4.572540 -0.890186
0.426072 -4.317408 -0.886360
0.553875 -4.050170 -0.877557
0.096180 -3.974923 -0.887813
0.228277 -3.727927 -0.870446
0.354406 -3.595069 -0.879429
0.464447 -3.404204 -0.873333
0.076885 -3.344021 -0.881077
0.193509 -3.201356 -0.877210
0.298363 -3.034709 -0.866269
0.402544 -2.946637 -0.878344
0.993893 -10.128657 -0.185819
1.363737 -10.124594 -0.285003
0.228974 -9.274175 -0.333687
0.567770 -9.282120 -0.421148
0.954290 -9.770682 -0.539756
1.221212 -9.089244 -0.591931
0.208640 -8.633787 -0.626482
0.492160 -8.108728 -0.667172
0.737895 -7.600328 -0.699102
0.958658 -7.154029 -0.732030
0.161573 -6.880008 -0.753205
0.392809 -6.534063 -0.778577
0.602351 -6.223414 -0.804180
0.793414 -5.935049 -0.829285
0.131825 -5.737017 -0.842174
0.339992 -5.710409 -0.894276
0.519495 -5.396832 -0.900195
0.672812 -5.036918 -0.895758
0.108359 -4.863630 -0.897868
0.269642 -4.577308 -0.890949
0.413197 -4.322596 -0.887161
0.540670 -4.046035 -0.876297
0.083923 -3.972272 -0.887160
0.216500 -3.722776 -0.869085
0.343006 -3.592271 -0.878483
0.452464 -3.394084 -0.870377
0.066490 -3.337473 -0.879294
0.184184 -3.210602 -0.879584
0.289963 -3.045186 -0.869002
0.391725 -2.934550 -0.874379
0.877779 -9.236839 -0.169408
1.333060 -10.131703 -0.285086
0.200736 -9.284824 -0.334047
0.539174 -9.281823 -0.421057
0.923745 -9.767599 -0.539427
1.192801 -9.088990 -0.591674
0.182614 -8.656323 -0.628074
0.467166 -8.108210 -0.667008
0.714388 -7.600574 -0.698920
0.936576 -7.155950 -0.731929
0.140850 -6.899354 -0.755272
0.372874 -6.537220 -0.778813
0.583440 -6.227208 -0.804435
0.773278 -5.922722 -0.827227
0.114125 -5.732448 -0.841448
0.321469 -5.693670 -0.891495
0.503210 -5.401346 -0.900686
0.657356 -5.038958 -0.895759
0.093400 -4.861973 -0.897505
0.255708 -4.580074 -0.891330
0.401377 -4.339453 -0.890364
0.528254 -4.047675 -0.876297
0.071524 -3.960801 -0.884545
0.205559 -3.732175 -0.871127
0.329927 -3.571054 -0.873043
0.441674 -3.392574 -0.869638
0.056283 -3.339595 -0.879803
0.173653 -3.198631 -0.876155
0.280178 -3.041272 -0.867635
0.382596 -2.934787 -0.874096
0.847972 -9.223559 -0.169116
1.300442 -10.123847 -0.284752
0.172083 -9.276404 -0.333723
0.510750 -9.284431 -0.421103
0.892865 -9.760444 -0.538878
1.165925 -9.100526 -0.592189
0.155768 -8.640888 -0.626917
0.441745 -8.099652 -0.666190
0.691878 -7.611655 -0.699740
0.914239 -7.155829 -0.731626
0.119803 -6.906711 -0.756034
0.352816 -6.538334 -0.778813
0.564332 -6.228969 -0.804435
0.751848 -5.899519 -0.823660
0.096471 -5.728815 -0.840867
0.303841 -5.691669 -0.891032
0.486460 -5.400900 -0.900358
0.643635 -5.054628 -0.898189
0.078705 -4.876003 -0.900046
0.241707 -4.581817 -0.891521
0.388760 -4.348471 -0.891965
0.516204 -4.052187 -0.876927
0.059211 -3.950267 -0.882147
0.195777 -3.764883 -0.878617
0.318883 -3.571081 -0.872806
0.437128 -3.440062 -0.881463
0.046037 -3.339752 -0.879803
0.162705 -3.176992 -0.870087
0.274941 -3.088108 -0.880752
0.370080 -2.908357 -0.865881
1.269749 -10.130765 -0.284835
0.143545 -9.271893 -0.333543
0.482419 -9.288948 -0.421238
0.863356 -9.768110 -0.539152
1.138495 -9.108021 -0.592447
0.129153 -8.634343 -0.626410
0.416382 -8.091016 -0.665371
0.669132 -7.620686 -0.700379
0.892158 -7.157613 -0.731525
0.098557 -6.903071 -0.755598
0.332503 -6.534427 -0.778222
0.545824 -6.237587 -0.805328
0.733989 -5.903764 -0.823934
0.078977 -5.735019 -0.841738
0.286329 -5.691588 -0.890878
0.469631 -5.399419 -0.899867
0.627518 -5.051693 -0.897321
0.063681 -4.871305 -0.899139
0.227649 -4.582537 -0.891521
0.375333 -4.348667 -0.891765
0.508110 -4.088681 -0.884483
0.047068 -3.948479 -0.881712
0.184464 -3.770330 -0.879752
0.309428 -3.589468 -0.877064
0.423353 -3.415418 -0.874811
0.035863 -3.346646 -0.881586
0.153884 -3.196746 -0.875363
0.261594 -3.043892 -0.867908
0.360565 -2.904720 -0.864465
1.237207 -10.122706 -0.284501
0.115111 -9.273288 -0.333579
0.453772 -9.287391 -0.421103
0.832620 -9.761759 -0.538658
1.111271 -9.117414 -0.592833
0.102710 -8.638689 -0.626700
0.391460 -8.090265 -0.665207
0.645329 -7.617742 -0.699923
0.870315 -7.161304 -0.731626
0.077133 -6.881472 -0.753205
0.312454 -6.535416 -0.778222
0.526518 -6.237256 -0.805073
0.716350 -5.909921 -0.824483
0.061699 -5.764915 -0.846094
0.269145 -5.698361 -0.891804
0.452404 -5.392970 -0.898557
0.612845 -5.060438 -0.898536
0.048618 -4.859677 -0.896961
0.213451 -4.580272 -0.890949
0.361584 -4.344916 -0.890764
0.494388 -4.080514 -0.882384
0.034946 -3.947629 -0.881494
0.171602 -3.742664 -0.873170
0.297770 -3.582654 -0.875172
0.414384 -3.429209 -0.878014
0.025433 -3.325467 -0.875982
0.143599 -3.186603 -0.872461
0.256067 -3.090696 -0.881026
0.351191 -2.902004 -0.863332
0.808594 -9.782001 -0.179211
1.205791 -10.123476 -0.284417
0.086661 -9.273598 -0.333579
0.425962 -9.303708 -0.421781
0.784915 -9.548323 -0.526745
1.083176 -9.119790 -0.592769
0.076312 -8.650931 -0.627568
0.366683 -8.092423 -0.665289
0.622360 -7.624648 -0.700379
0.848925 -7.168881 -0.732131
0.056134 -6.895593 -0.754728
0.292668 -6.542296 -0.778931
0.507219 -6.236865 -0.804818
0.698448 -5.914059 -0.824758
0.043907 -5.751226 -0.844062
0.251792 -5.702122 -0.892268
0.435539 -5.390399 -0.897901
0.598586 -5.073052 -0.900446
0.033551 -4.837186 -0.892786
0.199270 -4.577963 -0.890377
0.348487 -4.348935 -0.891365
0.482325 -4.085896 -0.883224
0.022913 -3.961381 -0.884545
0.161534 -3.776255 -0.880887
0.287940 -3.598078 -0.878720
0.405108 -3.441052 -0.880724
0.015293 -3.339067 -0.879548
0.135845 -3.235215 -0.885652
0.245895 -3.082837 -0.878566
0.348013 -2.951643 -0.877778
1.174727 -10.127129 -0.284417
0.058209 -9.273820 -0.333579
0.397459 -9.305969 -0.421827
0.734040 -9.277951 -0.511703
1.055651 -9.127035 -0.593026
0.049937 -8.680048 -0.629666
0.341770 -8.091518 -0.665126
0.599822 -7.637443 -0.701382
0.826813 -7.170463 -0.732030
0.034973 -6.894739 -0.754619
0.272637 -6.544155 -0.779049
0.488237 -6.240369 -0.805073
0.679621 -5.910269 -0.823934
0.026230 -5.744408 -0.843045
0.234216 -5.700893 -0.891959
0.417853 -5.376957 -0.895445
0.583919 -5.082692 -0.901834
0.018761 -4.850050 -0.895146
0.185066 -4.574629 -0.889614
0.334766 -4.345099 -0.890364
0.469118 -4.081528 -0.881965
0.010755 -3.959481 -0.884109
0.149678 -3.769921 -0.879298
0.275633 -3.582476 -0.874699
0.394770 -3.444204 -0.881216
0.005060 -3.346835 -0.881586
0.126031 -3.238508 -0.886444
0.237098 -3.092209 -0.881026
0.339284 -2.955555 -0.878627
1.143876 -10.132671 -0.284473
0.029760 -9.274954 -0.333615
0.368709 -9.302154 -0.421600
0.705497 -9.279164 -0.511648
1.028537 -9.138165 -0.593542
0.023326 -8.687142 -0.630172
0.317490 -8.106471 -0.666272
0.574890 -7.619386 -0.699558
0.805587 -7.179886 -0.732736
0.013812 -6.890837 -0.754184
0.252788 -6.550914 -0.779758
0.469239 -6.243815 -0.805328
0.661155 -5.909374 -0.823523
0.008617 -5.751387 -0.844062
0.216425 -5.693686 -0.890723
0.402309 -5.391003 -0.897574
0.568213 -5.083481 -0.901661
0.003882 -4.852052 -0.895509
0.170737 -4.567328 -0.888088
0.321145 -4.342198 -0.889563
0.456594 -4.082948 -0.881965
-0.001389 -3.949735 -0.881930
0.137897 -3.764523 -0.877937
0.264784 -3.585242 -0.875172
0.380979 -3.416503 -0.873826
-0.005187 -3.333296 -0.878020
0.115819 -3.231168 -0.884333
0.225563 -3.065101 -0.873101
0.332983 -2.981363 -0.885992
1.112784 -10.136133 -0.284473
0.001306 -9.280998 -0.333831
0.340206 -9.304240 -0.421646
0.677316 -9.285269 -0.511868
1.000605 -9.142269 -0.593606
-0.003324 -8.681188 -0.629738
0.292151 -8.094460 -0.665207
0.553380 -7.646939 -0.701929
0.781830 -7.166500 -0.731122
-0.007331 -6.892835 -0.754402
0.232759 -6.553644 -0.779994
0.449867 -6.242258 -0.804945
0.642594 -5.907435 -0.822974
-0.009045 -5.762270 -0.845659
0.198645 -5.685436 -0.889333
0.385768 -5.392211 -0.897574
0.551870 -5.078347 -0.900446
-0.010990 -4.846140 -0.894420
0.157026 -4.576660 -0.889804
0.308999 -4.359777 -0.892966
0.445651 -4.098910 -0.885113
-0.013524 -3.954592 -0.883019
0.126543 -3.770769 -0.879298
0.252960 -3.574408 -0.872333
0.369973 -3.412838 -0.872594
-0.015413 -3.333264 -0.878020
0.105715 -3.225723 -0.882750
0.216834 -3.075374 -0.875833
0.323317 -2.977603 -0.884576
1.081151 -10.134529 -0.284333
-0.031954 -10.915894 -0.392639
0.311157 -9.290263 -0.420967
0.649730 -9.300252 -0.512582
0.972869 -9.148273 -0.593799
-0.029964 -8.683132 -0.629883
0.267053 -8.087349 -0.664553
0.529435 -7.641646 -0.701290
0.762356 -7.192609 -0.733543
-0.028470 -6.890792 -0.754184
0.212072 -6.536462 -0.777868
0.430441 -6.239651 -0.804435
0.625820 -5.922184 -0.824758
-0.026774 -5.773099 -0.847256
0.181202 -5.686019 -0.889333
0.369358 -5.395338 -0.897901
0.535874 -5.076099 -0.899751
-0.025900 -4.853951 -0.895872
0.142831 -4.572214 -0.888851
0.295424 -4.357772 -0.892365
0.434306 -4.111925 -0.887632
-0.025675 -3.957460 -0.883673
0.115063 -3.774060 -0.879979
0.242190 -3.578075 -0.873043
0.361226 -3.430342 -0.876782
-0.025550 -3.321598 -0.874964
0.095905 -3.228925 -0.883542
0.207916 -3.083703 -0.878020
0.315086 -2.987165 -0.887125
1.046655 -10.104987 -0.283413
-0.065497 -10.924739 -0.392962
0.620263 -9.288254 -0.511813
0.945413 -9.157170 -0.594186
-0.056539 -8.673026 -0.629159
0.241942 -8.078169 -0.663734
0.505659 -7.638266 -0.700834
0.738962 -7.182048 -0.732231
-0.049560 -6.883714 -0.753423
0.191814 -6.530135 -0.777041
0.410252 -6.225107 -0.802394
0.608962 -5.936886 -0.826541
-0.044341 -5.754191 -0.844497
0.163927 -5.692474 -0.890260
0.352031 -5.384633 -0.895936
0.519896 -5.073800 -0.899057
-0.040758 -4.849915 -0.895146
0.129522 -4.598144 -0.893810
0.282053 -4.358657 -0.892365
0.421788 -4.114211 -0.887841
-0.037854 -3.961266 -0.884545
0.103564 -3.777316 -0.880660
0.232026 -3.591406 -0.876118
0.351390 -3.438184 -0.878506
-0.035855 -3.332140 -0.877765
0.085587 -3.213776 -0.879321
0.198269 -3.081446 -0.877200
0.305236 -2.981439 -0.885142
1.018047 -10.132020 -0.284082
-0.118767 -13.103987 -0.471360
0.592526 -9.302070 -0.512472
0.917017 -9.157049 -0.593993
-0.083109 -8.668822 -0.628870
0.217184 -8.079869 -0.663816
0.482286 -7.640775 -0.700926
0.717023 -7.185272 -0.732332
-0.070811 -6.896452 -0.754837
0.171544 -6.521758 -0.775978
0.391276 -6.228316 -0.802649
0.590843 -5.939712 -0.826678
-0.061930 -5.748092 -0.843626
0.146615 -5.698876 -0.891187
0.335325 -5.382734 -0.895445
0.504717 -5.079291 -0.899751
-0.055514 -4.838951 -0.893149
0.114700 -4.570061 -0.888278
0.268137 -4.350701 -0.890564
0.409647 -4.120351 -0.888891
-0.050142 -3.971866 -0.886942
0.091927 -3.775668 -0.880206
0.220290 -3.580463 -0.873280
0.342943 -3.460464 -0.883926
-0.046064 -3.331048 -0.877511
0.075591 -3.208238 -0.877738
0.184344 -3.009069 -0.856431
0.293245 -2.953731 -0.876645
0.984342 -10.108234 -0.283329
-0.160775 -13.252454 -0.476716
0.225833 -9.300723 -0.421329
0.563441 -9.294875 -0.511978
0.889112 -9.161805 -0.594121
-0.109628 -8.662543 -0.628436
0.192584 -8.088468 -0.664471
0.458484 -7.636255 -0.700379
0.694784 -7.185457 -0.732131
-0.092049 -6.902166 -0.755490
0.151419 -6.517290 -0.775388
0.372107 -6.228497 -0.802522
0.575279 -5.969105 -0.830519
-0.079565 -5.747875 -0.843626
0.129219 -5.703250 -0.891804
0.319510 -5.395555 -0.897410
0.489981 -5.089638 -0.901314
-0.070388 -4.840724 -0.893512
0.101371 -4.601796 -0.894382
0.254902 -4.353459 -0.890964
0.397473 -4.126454 -0.889940
-0.062235 -3.965839 -0.885634
0.080260 -3.772038 -0.879298
0.209758 -3.588882 -0.875172
0.332788 -3.466323 -0.885158
-0.056398 -3.337659 -0.879294
0.065827 -3.212312 -0.878793
0.176899 -3.040351 -0.865176
0.285467 -2.967982 -0.880610
0.872255 -9.251356 -0.259235
-0.235941 -15.522168 -0.558386
0.197086 -9.291385 -0.420876
0.535152 -9.300547 -0.512197
0.860626 -9.160516 -0.593864
-0.136298 -8.668149 -0.628870
0.168037 -8.101975 -0.665535
0.434488 -7.627683 -0.699467
0.672180 -7.181612 -0.731525
-0.113256 -6.903839 -0.755707
0.131564 -6.524674 -0.776215
0.353165 -6.232580 -0.802904
0.553559 -5.934350 -0.825444
-0.097282 -5.752550 -0.844352
0.111663 -5.700656 -0.891341
0.303231 -5.401434 -0.898229
0.475095 -5.098962 -0.902702
-0.085463 -4.853268 -0.895872
0.087252 -4.602085 -0.894382
0.241436 -4.352264 -0.890564
0.383904 -4.117919 -0.887841
-0.074420 -3.966605 -0.885852
0.068936 -3.785898 -0.882476
0.199713 -3.606971 -0.879429
0.322690 -3.473118 -0.886636
-0.066715 -3.341337 -0.880313
0.055450 -3.182602 -0.870614
0.167836 -3.045682 -0.866542
0.273516 -2.938286 -0.871546
0.843052 -9.245029 -0.258984
-0.323209 -17.691604 -0.636461
0.168470 -9.285953 -0.420605
0.506615 -9.302144 -0.512197
0.832428 -9.162119 -0.593799
-0.162984 -8.672677 -0.629232
0.143232 -8.105441 -0.665780
0.410924 -7.625997 -0.699193
0.650144 -7.183640 -0.731525
-0.134243 -6.893520 -0.754619
0.111681 -6.532989 -0.777159
0.334201 -6.236605 -0.803287
0.538820 -5.974495 -0.830794
-0.114989 -5.755192 -0.844788
0.094059 -5.694057 -0.890260
0.286711 -5.403324 -0.898393
0.459361 -5.099415 -0.902529
-0.100515 -4.860848 -0.897324
0.073117 -4.601350 -0.894191
0.228390 -4.358855 -0.891765
0.371181 -4.118104 -0.887632
-0.086824 -3.977091 -0.888249
0.057556 -3.801673 -0.886108
0.189052 -3.615330 -0.881322
0.307351 -3.421966 -0.873333
-0.076966 -3.341117 -0.880313
0.045617 -3.177935 -0.869295
0.160590 -3.086529 -0.878020
0.265274 -2.947708 -0.874096
0.814070 -9.240602 -0.258789
-0.378572 -17.741487 -0.638294
0.139951 -9.284428 -0.420515
0.477767 -9.297672 -0.511868
0.803791 -9.158665 -0.593413
-0.190092 -8.695070 -0.630896
0.118452 -8.111821 -0.666271
0.387829 -7.633189 -0.699740
0.627842 -7.182627 -0.731222
-0.155347 -6.891088 -0.754402
0.091763 -6.542238 -0.778222
0.315516 -6.246516 -0.804435
0.521175 -5.984014 -0.831891
-0.132896 -5.765693 -0.846385
0.076603 -5.695307 -0.890414
0.270132 -5.404178 -0.898393
0.442775 -5.090008 -0.900619
-0.115638 -4.869365 -0.898957
0.058937 -4.596645 -0.893238
0.214872 -4.356600 -0.891164
0.357273 -4.104612 -0.884483
-0.098976 -3.974854 -0.887813
0.045775 -3.792093 -0.883838
0.177769 -3.612011 -0.880376
0.297354 -3.428686 -0.874811
-0.087190 -3.339898 -0.880058
0.036171 -3.205066 -0.876682
0.150461 -3.073556 -0.874194
0.257225 -2.959973 -0.877494
0.785209 -9.237079 -0.258622
-0.433537 -17.762220 -0.639085
0.111394 -9.278820 -0.420243
0.448469 -9.283137 -0.510990
0.775436 -9.158105 -0.593220
-0.216817 -8.696439 -0.631041
0.093576 -8.113144 -0.666353
0.364503 -7.636332 -0.699923
0.605134 -7.176589 -0.730415
-0.176487 -6.890580 -0.754402
0.071833 -6.555396 -0.779758
0.296351 -6.247455 -0.804435
0.502068 -5.976702 -0.830657
-0.150611 -5.766247 -0.846530
0.059150 -5.697491 -0.890723
0.253690 -5.407938 -0.898884
0.426087 -5.078584 -0.898362
-0.130497 -4.866038 -0.898413
0.044806 -4.593859 -0.892665
0.201278 -4.352345 -0.890164
0.344106 -4.098869 -0.883014
-0.111334 -3.980386 -0.889121
0.034202 -3.799033 -0.885427
0.166373 -3.605745 -0.878720
0.286268 -3.422821 -0.873087
-0.097860 -3.354114 -0.883879
0.026338 -3.205162 -0.876682
0.140723 -3.067277 -0.872281
0.248303 -2.962660 -0.878061
0.756213 -9.231475 -0.258399
-0.488248 -17.768797 -0.639372
