x      y      z
2.592675 -2.397245 -0.290000
2.413290 -2.410591 0.002322
2.591743 -2.406705 -0.031730
2.794278 -2.412121 -0.067398
2.985646 -2.394944 -0.106778
2.366196 -2.365530 -0.120347
2.547857 -2.368107 -0.157529
2.764504 -2.388609 -0.200871
2.981369 -2.393138 -0.246756
2.377910 -2.379731 -0.244038
2.581660 -2.401794 -0.289591
2.403062 -2.415148 0.002319
2.569734 -2.400992 -0.031551
2.776297 -2.411503 -0.067142
2.971284 -2.398442 -0.106527
2.345541 -2.359313 -0.119664
2.535473 -2.371136 -0.157212
2.757916 -2.397734 -0.200926
2.950724 -2.383462 -0.244824
2.358650 -2.374985 -0.242808
2.563365 -2.399486 -0.288363
2.382984 -2.409710 0.002307
2.557984 -2.404755 -0.031497
2.757593 -2.410140 -0.066869
2.952273 -2.398093 -0.106109
2.343208 -2.371474 -0.119916
2.520911 -2.372058 -0.156760
2.735516 -2.393035 -0.199828
2.915520 -2.369844 -0.242505
2.327530 -2.358075 -0.240348
2.553815 -2.405289 -0.288117
2.369972 -2.411304 0.002301
2.535339 -2.398161 -0.031308
2.734419 -2.404723 -0.066485
2.934067 -2.398282 -0.105719
2.335222 -2.377939 -0.119880
2.515073 -2.381155 -0.156850
2.719168 -2.393500 -0.199170
2.893559 -2.366773 -0.241281
2.318888 -2.363781 -0.240203
2.517487 -2.385691 -0.284843
2.354178 -2.409980 0.002293
2.521450 -2.399724 -0.031228
2.713551 -2.401175 -0.066157
2.905851 -2.390127 -0.104966
2.292316 -2.348618 -0.118047
2.476653 -2.359232 -0.154905
2.701347 -2.392562 -0.198401
2.876268 -2.367395 -0.240444
2.304662 -2.363743 -0.239480
2.504386 -2.387902 -0.284189
2.340504 -2.410733 0.002287
2.507576 -2.401224 -0.031147
2.696464 -2.400845 -0.065919
2.878483 -2.382460 -0.104241
2.300408 -2.371421 -0.118838
2.470124 -2.367510 -0.154950
2.631378 -2.345036 -0.193790
2.874371 -2.380663 -0.240895
2.291153 -2.364356 -0.238829
2.501363 -2.399713 -0.284680
2.318515 -2.402791 0.002273
2.495157 -2.404049 -0.031084
2.683128 -2.403769 -0.065773
2.873464 -2.393199 -0.104324
2.281330 -2.366237 -0.118227
2.466444 -2.378544 -0.155176
2.632348 -2.360431 -0.194393
2.863988 -2.386915 -0.240637
2.265208 -2.351978 -0.236875
2.482516 -2.396302 -0.283370
2.300750 -2.399066 0.002263
2.479154 -2.403341 -0.030976
2.669800 -2.406634 -0.065627
2.860746 -2.397509 -0.104129
2.268528 -2.367452 -0.117939
2.442646 -2.370100 -0.154136
2.619164 -2.363145 -0.193954
2.854357 -2.393767 -0.240444
2.251774 -2.352432 -0.236224
2.469433 -2.398352 -0.282715
2.281650 -2.393808 0.002251
2.466042 -2.405349 -0.030905
2.653517 -2.406753 -0.065408
2.857197 -2.409496 -0.104269
2.262633 -2.375848 -0.118011
2.414633 -2.357345 -0.152824
2.622991 -2.381236 -0.194778
2.834797 -2.392215 -0.239413
2.240422 -2.354993 -0.235790
2.445668 -2.389896 -0.280833
2.277734 -2.404427 0.002254
2.456510 -2.410803 -0.030878
2.634304 -2.404099 -0.065116
2.823116 -2.395614 -0.103293
2.248464 -2.375521 -0.117651
2.435184 -2.392044 -0.154588
2.623782 -2.396680 -0.195382
2.827445 -2.400901 -0.239413
2.233186 -2.361856 -0.235790
2.446142 -2.405074 -0.281733
2.264177 -2.404851 0.002248
2.437006 -2.406384 -0.030725
2.615869 -2.402026 -0.064842
2.833997 -2.419842 -0.103962
2.241165 -2.382408 -0.117651
2.412913 -2.384756 -0.153638
2.599508 -2.389178 -0.194119
2.803375 -2.395303 -0.237996
2.215684 -2.357794 -0.234705
2.400491 -2.374717 -0.277313
2.244490 -2.398643 0.002236
2.422518 -2.406801 -0.030636
2.604081 -2.405969 -0.064733
2.784101 -2.392045 -0.102400
2.231798 -2.387082 -0.117544
2.391418 -2.378060 -0.152733
2.560644 -2.367991 -0.191758
2.781635 -2.391531 -0.236773
2.214567 -2.371141 -0.235356
2.386837 -2.375743 -0.276576
2.607275 -2.413901 -0.325300
2.228267 -2.395998 0.002227
2.402393 -2.401497 -0.030474
2.587168 -2.405097 -0.064495
2.797922 -2.418881 -0.103181
2.202015 -2.369759 -0.116357
2.395410 -2.396691 -0.153457
2.549712 -2.372435 -0.191484
2.775795 -2.401359 -0.236901
2.219496 -2.391081 -0.236658
2.389396 -2.392928 -0.277722
2.564153 -2.388629 -0.320832
2.211403 -2.392541 0.002218
2.390784 -2.404602 -0.030420
2.568824 -2.402778 -0.064222
2.742975 -2.386121 -0.101424
2.190666 -2.372099 -0.116142
2.357069 -2.372844 -0.151467
2.533675 -2.372057 -0.190825
2.745081 -2.389552 -0.234905
2.175630 -2.358294 -0.232751
2.370109 -2.388221 -0.276331
2.571344 -2.410104 -0.322656
2.199993 -2.394896 0.002214
2.374961 -2.403390 -0.030313
2.540326 -2.390776 -0.063692
2.766480 -2.421518 -0.102567
2.165809 -2.359666 -0.115207
2.329424 -2.359448 -0.150155
2.537287 -2.390089 -0.191649
2.722723 -2.384813 -0.233616
2.185910 -2.384071 -0.234632
2.334076 -2.366390 -0.272975
2.550173 -2.405000 -0.320923
2.178477 -2.386126 0.002199
2.364073 -2.407097 -0.030268
2.532253 -2.397871 -0.063674
2.724531 -2.399603 -0.101285
2.145089 -2.351533 -0.114488
2.318676 -2.363019 -0.149928
2.495157 -2.364892 -0.189013
2.722132 -2.399093 -0.234196
2.247779 -2.466699 -0.242085
2.313549 -2.360017 -0.271420
2.544227 -2.414184 -0.321106
2.164426 -2.385392 0.002192
2.345501 -2.402890 -0.030124
2.519093 -2.400111 -0.063528
2.694713 -2.388061 -0.100448
2.132495 -2.352180 -0.114201
2.319786 -2.378703 -0.150471
2.492225 -2.376670 -0.189343
2.672200 -2.369693 -0.230525
2.258277 -2.493543 -0.244038
2.316730 -2.377811 -0.272647
2.514480 -2.400660 -0.318279
2.153749 -2.388308 0.002189
2.327674 -2.399309 -0.029990
2.498726 -2.395374 -0.063199
2.698565 -2.406296 -0.100866
2.131289 -2.365394 -0.114524
2.313867 -2.387244 -0.150562
2.450339 -2.351123 -0.186708
2.653004 -2.367249 -0.229494
2.255287 -2.505649 -0.244544
2.299024 -2.374168 -0.271420
2.476940 -2.379388 -0.314450
2.142407 -2.390436 0.002185
2.318914 -2.404999 -0.029972
2.487048 -2.398864 -0.063090
2.674057 -2.399210 -0.100225
2.110022 -2.356287 -0.113769
2.291978 -2.379223 -0.149612
2.435213 -2.351001 -0.186104
2.635333 -2.366044 -0.228592
2.252909 -2.518503 -0.245123
2.285510 -2.374747 -0.270683
2.490394 -2.407046 -0.317094
2.131738 -2.393264 0.002182
2.304606 -2.404882 -0.029882
2.477524 -2.404394 -0.063035
2.661490 -2.402714 -0.100030
2.101454 -2.361256 -0.113697
2.268778 -2.369647 -0.148571
2.443745 -2.373766 -0.187312
2.639170 -2.384153 -0.229559
2.286921 -2.572363 -0.249681
2.271324 -2.374546 -0.269865
2.445874 -2.378573 -0.312353
2.121734 -2.396798 0.002179
2.292390 -2.406873 -0.029819
2.467275 -2.409189 -0.062962
2.634868 -2.393393 -0.099305
2.087579 -2.360207 -0.113338
2.249102 -2.363570 -0.147757
2.430025 -2.374971 -0.186818
2.594920 -2.358677 -0.226338
2.300811 -2.604032 -0.252069
2.256475 -2.373557 -0.268964
2.464901 -2.411835 -0.315727
2.106444 -2.394287 0.002171
2.270559 -2.398644 -0.029631
2.454166 -2.411142 -0.062816
2.604639 -2.380559 -0.098440
2.048658 -2.330572 -0.111612
2.245272 -2.374088 -0.147983
2.426286 -2.385916 -0.187092
2.604609 -2.382117 -0.227820
2.306632 -2.626817 -0.253588
2.249182 -2.380469 -0.268964
2.451813 -2.413797 -0.314997
2.097114 -2.398479 0.002169
2.259763 -2.401957 -0.029586
2.434669 -2.406710 -0.062506
2.597324 -2.388539 -0.098440
2.085550 -2.387271 -0.114021
2.237978 -2.380965 -0.147983
2.414697 -2.389135 -0.186763
2.601694 -2.394151 -0.228206
2.304464 -2.640645 -0.254239
2.223448 -2.367742 -0.266754
2.440858 -2.417803 -0.314541
2.085154 -2.399618 0.002164
2.242822 -2.398653 -0.029460
2.413096 -2.400067 -0.062140
2.567239 -2.375451 -0.097576
2.067734 -2.381584 -0.113446
2.226571 -2.383440 -0.147712
2.398864 -2.388078 -0.186104
2.573834 -2.383138 -0.226403
2.299619 -2.651469 -0.254601
2.227054 -2.386210 -0.268064
2.411564 -2.403488 -0.311715
2.069286 -2.396165 0.002155
2.227284 -2.396733 -0.029353
2.412789 -2.414532 -0.062323
2.557744 -2.381272 -0.097492
2.154429 -2.496871 -0.118622
2.208373 -2.378547 -0.146988
2.386588 -2.390480 -0.185720
2.567971 -2.392384 -0.226531
2.319474 -2.690998 -0.257712
2.212267 -2.384994 -0.267163
2.417539 -2.424273 -0.313447
2.053458 -2.392637 0.002146
2.209065 -2.391801 -0.029209
2.394097 -2.410572 -0.062031
2.551885 -2.390475 -0.097548
2.191645 -2.555814 -0.121102
2.179386 -2.361817 -0.145540
2.358847 -2.377236 -0.184128
2.529312 -2.370905 -0.223762
2.303421 -2.689011 -0.256844
2.236014 -2.425477 -0.270929
2.368730 -2.389948 -0.308068
2.047406 -2.400448 0.002148
2.197659 -2.394148 -0.029155
2.374047 -2.405097 -0.061702
2.541630 -2.395550 -0.097436
2.192220 -2.572414 -0.121570
2.141746 -2.335362 -0.143504
2.341727 -2.374509 -0.183359
2.524204 -2.380707 -0.223955
2.306151 -2.708976 -0.258074
2.261553 -2.468333 -0.274939
2.356495 -2.392238 -0.307430
2.345877 -2.389352 0.060494
2.549695 -2.415010 0.030464
2.017401 -2.380019 0.002124
2.170086 -2.378717 -0.028886
2.349152 -2.394527 -0.061246
2.538620 -2.407464 -0.097604
2.201756 -2.599718 -0.122540
2.130534 -2.337492 -0.143233
2.345614 -2.393092 -0.184237
2.507478 -2.379510 -0.223118
2.301695 -2.720607 -0.258508
2.261351 -2.483366 -0.275840
2.356808 -2.407284 -0.308433
2.003135 -2.376173 0.115535
2.173287 -2.395946 0.089225
2.331553 -2.389382 0.060313
2.535759 -2.416612 0.030386
2.001714 -2.376254 0.002115
2.156733 -2.378696 -0.028805
2.339003 -2.398859 -0.061173
2.524713 -2.409030 -0.097353
2.213719 -2.630163 -0.123654
2.125364 -2.346238 -0.143369
2.322236 -2.383826 -0.182975
2.507384 -2.394083 -0.223762
2.292053 -2.726129 -0.258363
2.272447 -2.510983 -0.278132
2.298020 -2.361688 -0.301686
1.986210 -2.370818 0.114978
2.158564 -2.394435 0.088922
2.320035 -2.392217 0.060205
2.524002 -2.420228 0.030334
1.987354 -2.373950 0.002107
2.144739 -2.380102 -0.028743
2.321195 -2.395254 -0.060899
2.487025 -2.387688 -0.096181
2.199869 -2.630043 -0.123331
2.112809 -2.346808 -0.143007
2.297548 -2.373006 -0.181602
2.492111 -2.394160 -0.223053
2.287516 -2.737740 -0.258798
2.268065 -2.521648 -0.278541
2.291456 -2.369443 -0.301777
1.975090 -2.372292 0.114755
2.147206 -2.396579 0.088757
2.313378 -2.400044 0.060223
2.510808 -2.422405 0.030264
1.984538 -2.385417 0.002112
2.136093 -2.385181 -0.028725
2.311755 -2.400203 -0.060844
2.491910 -2.407114 -0.096655
2.197539 -2.643696 -0.123654
2.115591 -2.364446 -0.143685
2.257025 -2.345508 -0.178967
2.481166 -2.398326 -0.222731
2.244700 -2.703310 -0.254891
2.284230 -2.555344 -0.281487
2.282796 -2.375026 -0.301595
1.965255 -2.375261 0.114606
2.133195 -2.395690 0.088481
2.301163 -2.402076 0.060096
2.496189 -2.423132 0.030177
1.968290 -2.380704 0.002103
2.124776 -2.387241 -0.028671
2.295392 -2.397895 -0.060607
2.463009 -2.393847 -0.095819
2.191964 -2.653508 -0.123798
2.103680 -2.365700 -0.143369
2.257410 -2.360360 -0.179571
2.453051 -2.385750 -0.220863
1.987554 -2.408625 -0.226529
2.318081 -2.609280 -0.286644
2.269308 -2.375538 -0.300774
1.954785 -2.377419 0.114420
2.113911 -2.388748 0.087985
2.286888 -2.401883 0.059916
2.473721 -2.416106 0.029995
1.954628 -2.379005 0.002096
2.104192 -2.378769 -0.028491
2.280444 -2.396958 -0.060406
2.443503 -2.389511 -0.095345
2.184447 -2.660993 -0.123834
2.125520 -2.405079 -0.145359
2.244654 -2.361484 -0.179132
2.440014 -2.387681 -0.220348
1.975096 -2.408541 -0.225950
2.319959 -2.627586 -0.287872
2.261323 -2.381766 -0.300683
1.934204 -2.367155 0.113640
2.092709 -2.379460 0.087405
2.273323 -2.402352 0.059753
2.466297 -2.423684 0.029995
1.939098 -2.374921 0.002087
2.097544 -2.385964 -0.028500
2.273080 -2.403943 -0.060406
2.427611 -2.388583 -0.095010
2.175009 -2.666133 -0.123762
2.224928 -2.533181 -0.152688
2.242884 -2.374166 -0.179571
2.431255 -2.393756 -0.220219
1.940605 -2.381344 -0.222839
2.323062 -2.647426 -0.289263
2.249905 -2.384347 -0.300136
1.925043 -2.370750 0.113529
2.082768 -2.382858 0.087295
2.258407 -2.401303 0.059554
2.450317 -2.422802 0.029891
1.916051 -2.361445 0.002070
2.075082 -2.375068 -0.028294
2.258162 -2.402891 -0.060205
2.422402 -2.398129 -0.095094
2.159897 -2.664254 -0.123367
2.249335 -2.576872 -0.154905
2.243791 -2.389771 -0.180230
2.413974 -2.391371 -0.219317
1.938311 -2.393487 -0.223418
2.324099 -2.665057 -0.290409
2.236448 -2.384701 -0.299316
1.914623 -2.372757 0.113343
2.071514 -2.384709 0.087130
2.241471 -2.397995 0.059301
2.432239 -2.419729 0.029761
1.916957 -2.377433 0.002079
2.048773 -2.359527 -0.028034
2.243272 -2.401770 -0.060005
2.402994 -2.393557 -0.094620
2.153594 -2.673203 -0.123475
2.247965 -2.591307 -0.155357
2.216012 -2.374743 -0.178583
2.388956 -2.381154 -0.217707
1.919703 -2.385436 -0.222116
2.324398 -2.681966 -0.291473
2.233195 -2.395922 -0.299863
1.901082 -2.370823 0.112972
2.053084 -2.378190 0.086661
2.221854 -2.391675 0.058976
2.414909 -2.417276 0.029640
1.897774 -2.368475 0.002066
2.040871 -2.365045 -0.028025
2.227050 -2.399115 -0.059767
2.399876 -2.405164 -0.094787
2.136638 -2.668875 -0.122971
2.247180 -2.606514 -0.155855
2.195816 -2.367621 -0.177540
2.373184 -2.379992 -0.216934
1.901786 -2.378072 -0.220886
2.318760 -2.692105 -0.291801
2.211622 -2.387421 -0.297948
1.896914 -2.380552 0.113157
2.035363 -2.372339 0.086220
2.208402 -2.391869 0.058814
2.398323 -2.415449 0.029527
1.878041 -2.358640 0.002052
2.025794 -2.362186 -0.027917
2.209510 -2.394913 -0.059493
2.360811 -2.380576 -0.093532
2.129685 -2.676982 -0.123043
2.248272 -2.624017 -0.156488
2.174330 -2.358929 -0.176387
2.344095 -2.365288 -0.214937
1.890758 -2.379211 -0.220452
2.310490 -2.699206 -0.291801
2.236664 -2.429360 -0.302324
1.885879 -2.381660 0.112935
2.023536 -2.373248 0.086027
2.194294 -2.391266 0.058633
2.380365 -2.412119 0.029397
1.854663 -2.344002 0.002035
2.017240 -2.366868 -0.027899
2.191341 -2.389889 -0.059201
2.346479 -2.380688 -0.093253
2.107207 -2.665472 -0.122217
2.244745 -2.636226 -0.156805
2.182596 -2.382522 -0.177650
2.311617 -2.346874 -0.212619
1.876032 -2.375608 -0.219584
2.293803 -2.696413 -0.290737
2.293064 -2.506006 -0.310986
1.869294 -2.375655 0.112377
2.009783 -2.371818 0.085751
2.180883 -2.391338 0.058470
2.368752 -2.415127 0.029345
1.848699 -2.351253 0.002036
2.000275 -2.361600 -0.027765
2.176590 -2.388472 -0.059001
2.337765 -2.386448 -0.093198
2.103958 -2.678211 -0.122504
2.243745 -2.651489 -0.157303
2.171243 -2.384777 -0.177320
2.308595 -2.358234 -0.213005
1.875508 -2.389983 -0.220379
2.032002 -2.403563 -0.258487
2.298765 -2.527764 -0.312809
1.854611 -2.371932 0.111931
1.996702 -2.371091 0.085503
2.169508 -2.393573 0.058362
2.344580 -2.405198 0.029137
1.824238 -2.334849 0.002017
1.973058 -2.344010 -0.027487
2.163883 -2.389210 -0.058855
2.313000 -2.375703 -0.092500
2.096347 -2.685441 -0.122540
2.232385 -2.654537 -0.157077
2.110321 -2.332197 -0.172928
2.325010 -2.389624 -0.215195
1.849767 -2.372130 -0.218209
2.014361 -2.397577 -0.257178
2.299012 -2.543670 -0.313903
1.839354 -2.367352 0.111449
1.983644 -2.370306 0.085255
2.158808 -2.396503 0.058272
2.335102 -2.410225 0.029111
1.821972 -2.346754 0.002022
1.958800 -2.341616 -0.027388
2.151191 -2.389892 -0.058708
2.301530 -2.378478 -0.092333
2.087486 -2.691070 -0.122504
2.225512 -2.662907 -0.157167
2.157905 -2.399540 -0.177430
2.275352 -2.352986 -0.211266
1.849812 -2.387255 -0.219077
1.994859 -2.389210 -0.255622
2.288536 -2.547748 -0.313538
1.825976 -2.365074 0.111077
1.975723 -2.375613 0.085227
2.141442 -2.391941 0.058001
2.324923 -2.414497 0.029076
1.801325 -2.334914 0.002007
1.963752 -2.362224 -0.027559
2.134517 -2.386048 -0.058453
2.290064 -2.381205 -0.092166
2.075559 -2.692713 -0.122288
2.216055 -2.668185 -0.157077
2.207091 -2.469429 -0.182096
2.265356 -2.357077 -0.211008
1.837611 -2.386596 -0.218498
1.970973 -2.375377 -0.253494
2.311879 -2.589672 -0.317823
1.815062 -2.365907 0.110854
1.958237 -2.369334 0.084786
2.129441 -2.393271 0.057874
2.309899 -2.413671 0.028980
1.800237 -2.348366 0.002014
1.954585 -2.365925 -0.027532
2.115893 -2.379883 -0.058143
2.288964 -2.394723 -0.092417
2.063642 -2.694308 -0.122073
2.210402 -2.678053 -0.157258
2.263825 -2.548601 -0.187421
2.258114 -2.364016 -0.211008
1.826039 -2.386678 -0.217992
1.978894 -2.399867 -0.255459
2.321767 -2.616865 -0.320285
1.805977 -2.369081 0.110743
1.941441 -2.363744 0.084372
2.110829 -2.387060 0.057567
2.296280 -2.414226 0.028902
1.794236 -2.355469 0.002015
1.946048 -2.370365 -0.027514
2.093354 -2.369130 -0.057723
2.277476 -2.397386 -0.092249
2.052341 -2.696650 -0.121893
2.197741 -2.679415 -0.156941
2.275159 -2.577242 -0.189013
2.244667 -2.364419 -0.210429
1.818708 -2.392269 -0.217992
1.949412 -2.378946 -0.252594
2.320314 -2.631445 -0.321197
1.795080 -2.369831 0.110520
1.933549 -2.368915 0.084345
2.092276 -2.380757 0.057260
2.276498 -2.408179 0.028746
1.769499 -2.337839 0.001996
1.941295 -2.379423 -0.027550
2.082777 -2.371785 -0.057631
2.243346 -2.376015 -0.091162
2.041646 -2.699745 -0.121749
2.189510 -2.686145 -0.156941
2.257364 -2.572951 -0.188190
2.228499 -2.361859 -0.209591
1.800538 -2.383512 -0.216690
1.941475 -2.384143 -0.252512
2.317480 -2.644543 -0.321926
1.787200 -2.374528 0.110483
1.918715 -2.365520 0.084014
2.072465 -2.372857 0.056917
2.259513 -2.404949 0.028625
1.774340 -2.359241 0.002009
1.930837 -2.381484 -0.027505
2.072861 -2.375151 -0.057558
2.238098 -2.385073 -0.091245
2.031553 -2.703600 -0.121641
2.171827 -2.681206 -0.156262
2.261271 -2.593411 -0.189178
2.220560 -2.367957 -0.209527
1.793217 -2.389025 -0.216690
1.923493 -2.376917 -0.251121
1.779308 -2.379200 0.110445
1.906430 -2.365169 0.083793
2.063209 -2.376939 0.056863
2.243253 -2.402368 0.028512
1.768291 -2.366275 0.002011
1.902819 -2.361701 -0.027209
2.043946 -2.356574 -0.056956
2.238270 -2.399970 -0.091552
2.019662 -2.705015 -0.121426
2.159833 -2.683187 -0.155991
2.253304 -2.600336 -0.189178
2.173142 -2.331687 -0.205727
1.780513 -2.387320 -0.216038
1.903701 -2.367274 -0.249483
1.766040 -2.376627 0.110074
1.894791 -2.365545 0.083600
2.051989 -2.378715 0.056754
2.228389 -2.401177 0.028417
1.753869 -2.362055 0.002003
1.884315 -2.353477 -0.027047
2.024304 -2.348444 -0.056609
2.213229 -2.387764 -0.090827
1.997658 -2.692739 -0.120599
2.154711 -2.693701 -0.156217
2.263559 -2.628422 -0.190715
2.200564 -2.375681 -0.209012
1.774962 -2.395175 -0.216255
1.893318 -2.369210 -0.249074
2.168357 -2.520809 -0.304421
1.752211 -2.373190 0.109665
1.881921 -2.364308 0.083352
2.045983 -2.386517 0.056791
2.215588 -2.402122 0.028347
1.738896 -2.356963 0.001994
1.865879 -2.345161 -0.026886
2.015788 -2.353125 -0.056573
2.196411 -2.384250 -0.090437
1.980493 -2.686788 -0.120060
2.145193 -2.698735 -0.156126
2.258082 -2.638388 -0.190935
2.174340 -2.361864 -0.207208
1.756961 -2.386153 -0.214953
1.899056 -2.391398 -0.250793
2.022784 -2.366219 -0.285002
1.746696 -2.380972 0.109777
1.876519 -2.372423 0.083435
2.025035 -2.376801 0.056411
2.200775 -2.400800 0.028252
1.730475 -2.360674 0.001992
1.868598 -2.363425 -0.027029
2.005319 -2.355492 -0.056481
2.182335 -2.383605 -0.090158
1.978146 -2.700914 -0.120419
2.122662 -2.687274 -0.155086
2.254505 -2.650628 -0.191319
2.163715 -2.364842 -0.206886
1.743154 -2.382677 -0.214157
1.879363 -2.381565 -0.249156
2.029700 -2.389111 -0.287008
1.782655 -2.440154 -0.330744
1.729965 -2.373399 0.109182
1.863672 -2.371095 0.083187
2.006103 -2.369267 0.056086
2.185318 -2.398670 0.028148
1.723813 -2.366780 0.001993
1.849601 -2.354207 -0.026859
1.981938 -2.342551 -0.056025
2.167612 -2.382156 -0.089851
1.963382 -2.698082 -0.120024
2.108239 -2.685915 -0.154634
2.250230 -2.662107 -0.191649
2.130938 -2.343413 -0.204439
1.741114 -2.395275 -0.214808
1.868972 -2.383399 -0.248747
2.021076 -2.393804 -0.286825
1.764649 -2.431131 -0.328786
1.715641 -2.368983 0.108737
1.848390 -2.366560 0.082828
1.985950 -2.360110 0.055725
2.169224 -2.395727 0.028035
1.720061 -2.376919 0.001997
1.828216 -2.341742 -0.026652
1.976029 -2.350151 -0.056062
2.154930 -2.382864 -0.089628
1.941628 -2.685466 -0.119197
2.101832 -2.694734 -0.154769
2.234988 -2.660588 -0.191045
2.167899 -2.398804 -0.208690
1.729085 -2.394137 -0.214230
1.860426 -2.387549 -0.248583
2.032285 -2.422117 -0.289469
1.735087 -2.405895 -0.324652
1.703112 -2.366935 0.108402
1.833766 -2.362744 0.082498
1.975493 -2.362357 0.055635
2.148486 -2.387504 0.027861
1.705755 -2.372441 0.001989
1.803248 -2.324427 -0.026392
1.962398 -2.348530 -0.055879
2.140259 -2.381286 -0.089321
1.932797 -2.690598 -0.119161
2.091107 -2.698011 -0.154588
2.235773 -2.678164 -0.191813
2.254553 -2.510125 -0.217772
1.683936 -2.346758 -0.209527
1.847601 -2.386153 -0.247846
2.008901 -2.409220 -0.287190
1.711486 -2.388582 -0.321605
1.688869 -2.362394 0.107956
1.824678 -2.365984 0.082415
1.967597 -2.367638 0.055617
2.135151 -2.387376 0.027783
1.706607 -2.389056 0.001998
1.797940 -2.332325 -0.026419
1.957100 -2.356847 -0.055934
2.129613 -2.384114 -0.089182
1.916986 -2.685941 -0.118694
2.077334 -2.697291 -0.154181
2.235197 -2.694232 -0.192472
2.264784 -2.537131 -0.219511
1.721889 -2.415259 -0.215170
1.836017 -2.386281 -0.247273
1.993240 -2.405403 -0.286005
1.692043 -2.376815 -0.319321
1.679877 -2.365120 0.107845
1.811938 -2.364430 0.082167
1.956504 -2.369038 0.055508
2.123831 -2.389431 0.027731
1.692324 -2.384494 0.001990
1.809018 -2.361645 -0.026688
1.953042 -2.366696 -0.056025
2.108353 -2.374938 -0.088596
1.905269 -2.686918 -0.118478
2.066013 -2.699684 -0.153955
2.225015 -2.698766 -0.192307
2.264937 -2.553025 -0.220284
1.711012 -2.415647 -0.214736
1.822029 -2.383193 -0.246373
1.949767 -2.367690 -0.280808
1.689909 -2.389299 -0.320300
1.674342 -2.372712 0.107956
1.798014 -2.361230 0.081863
1.946690 -2.371937 0.055436
2.110532 -2.389191 0.027653
1.679814 -2.382319 0.001984
1.802370 -2.367979 -0.026697
1.937530 -2.362626 -0.055788
2.120235 -2.403132 -0.089405
1.891836 -2.685398 -0.118155
2.047442 -2.692492 -0.153186
2.212928 -2.700945 -0.191978
2.261053 -2.564453 -0.220670
1.700149 -2.415991 -0.214302
1.806871 -2.378455 -0.245309
1.957000 -2.391386 -0.282905
1.677427 -2.387153 -0.319321
1.665333 -2.375383 0.107845
1.784127 -2.357966 0.081560
1.936244 -2.374024 0.055346
2.098574 -2.390394 0.027593
1.666760 -2.379272 0.001977
1.793890 -2.371903 -0.026679
1.938484 -2.378635 -0.056025
2.083196 -2.375804 -0.088150
1.883016 -2.690371 -0.118119
2.039172 -2.698761 -0.153186
2.200848 -2.703076 -0.191649
2.257121 -2.575881 -0.221056
1.687586 -2.413839 -0.213651
1.801968 -2.387169 -0.245636
1.922008 -2.363384 -0.278893
1.651887 -2.366205 -0.315839
1.652898 -2.373101 0.107511
1.779888 -2.367424 0.081698
1.918249 -2.366749 0.055038
2.089916 -2.395315 0.027575
1.655454 -2.378629 0.001973
1.769184 -2.354213 -0.026419
1.923626 -2.375247 -0.055806
2.043062 -2.344503 -0.086756
1.867336 -2.685469 -0.117651
2.028483 -2.701809 -0.153005
2.183752 -2.698948 -0.190880
2.268869 -2.605370 -0.222989
1.684155 -2.424739 -0.214157
1.792243 -2.389497 -0.245309
1.914122 -2.368495 -0.278802
1.649718 -2.378613 -0.316818
1.643904 -2.375695 0.107399
1.767232 -2.365666 0.081450
1.909097 -2.370287 0.054984
2.077316 -2.395671 0.027506
1.647011 -2.382051 0.001971
1.757765 -2.354021 -0.026356
1.920718 -2.386590 -0.055934
2.056800 -2.374940 -0.087648
1.852272 -2.681318 -0.117220
2.012419 -2.697610 -0.152417
2.171082 -2.700188 -0.190496
2.263477 -2.615337 -0.223246
1.676142 -2.429074 -0.214085
1.778353 -2.386194 -0.244409
1.915577 -2.385226 -0.280079
2.044839 -2.364379 -0.317028
1.645233 -2.387756 -0.317362
1.628116 -2.368375 0.106842
1.756391 -2.366260 0.081284
1.898693 -2.372230 0.054894
2.062776 -2.393701 0.027410
1.632335 -2.376377 0.001962
1.759472 -2.371448 -0.026491
1.917758 -2.397937 -0.056062
2.039723 -2.369875 -0.087230
1.836686 -2.676277 -0.116753
1.995805 -2.692536 -0.151783
2.160918 -2.704496 -0.190331
2.257395 -2.624539 -0.223440
1.675449 -2.444076 -0.214953
1.771617 -2.392439 -0.244491
1.890236 -2.368520 -0.277435
2.024606 -2.355552 -0.315010
1.633408 -2.386230 -0.316492
1.619151 -2.370883 0.106731
1.747343 -2.369224 0.081202
1.882692 -2.367089 0.054641
2.049569 -2.393182 0.027332
1.616581 -2.368984 0.001952
1.733200 -2.351079 -0.026204
1.957670 -2.463298 -0.057449
2.016848 -2.357890 -0.086560
1.821711 -2.671991 -0.116321
1.978649 -2.686580 -0.151105
2.154473 -2.713459 -0.190496
2.255168 -2.638279 -0.224019
1.662890 -2.441786 -0.214302
1.750684 -2.379400 -0.242608
1.871204 -2.359483 -0.275702
2.018662 -2.363265 -0.315212
1.604279 -2.359171 -0.312249
1.609626 -2.372532 0.106582
1.735339 -2.368123 0.080981
1.867982 -2.363441 0.054424
2.039624 -2.396413 0.027298
1.604256 -2.366483 0.001946
1.728343 -2.359612 -0.026240
2.078375 -2.631715 -0.061228
2.009605 -2.364066 -0.086560
1.597745 -2.359006 -0.102482
1.966858 -2.687801 -0.150833
2.144283 -2.717704 -0.190331
2.249001 -2.647467 -0.224213
1.651479 -2.441093 -0.213796
1.747493 -2.390392 -0.243181
1.859641 -2.359738 -0.275064
2.013334 -2.371722 -0.315514
1.609832 -2.383028 -0.314751
1.596754 -2.369172 0.106210
1.718652 -2.360506 0.080540
1.856399 -2.363656 0.054298
2.023222 -2.391970 0.027176
1.593636 -2.366417 0.001942
1.742867 -2.394818 -0.026572
2.069674 -2.637292 -0.061209
2.002343 -2.370221 -0.086560
1.581574 -2.350630 -0.101907
1.959190 -2.694631 -0.150879
2.128542 -2.714840 -0.189672
2.247306 -2.661980 -0.224857
1.651214 -2.456910 -0.214736
1.740151 -2.395742 -0.243181
1.860989 -2.376409 -0.276340
2.003482 -2.374846 -0.315111
1.600852 -2.385479 -0.314425
1.583919 -2.365756 0.105839
1.711402 -2.365768 0.080540
1.849139 -2.369340 0.054298
2.003649 -2.383623 0.027011
1.585257 -2.369633 0.001941
1.716176 -2.373413 -0.026276
2.069566 -2.653879 -0.061447
2.005988 -2.389368 -0.087035
1.571579 -2.351317 -0.101727
1.945064 -2.692531 -0.150426
2.112839 -2.711906 -0.189013
2.241053 -2.671155 -0.225050
1.641453 -2.458646 -0.214447
1.732210 -2.400261 -0.243099
1.851855 -2.379749 -0.276067
1.989795 -2.373358 -0.314102
1.591320 -2.387071 -0.313990
1.573886 -2.366444 0.105653
1.702969 -2.369384 0.080485
1.836959 -2.368682 0.054153
1.993762 -2.386689 0.026977
1.572444 -2.366156 0.001934
1.700134 -2.366486 -0.026141
2.061415 -2.660216 -0.061447
2.147218 -2.573581 -0.093504
1.561594 -2.351965 -0.101548
1.933299 -2.693616 -0.150155
2.097174 -2.708901 -0.188355
2.239877 -2.686449 -0.225758
1.635005 -2.465333 -0.214591
1.712642 -2.388555 -0.241380
1.839062 -2.378329 -0.275246
1.982504 -2.379451 -0.314102
1.580147 -2.386140 -0.313228
1.564415 -2.367926 0.105505
1.700339 -2.381105 0.080705
1.819308 -2.360843 0.053846
1.971101 -2.374329 0.026769
1.564627 -2.370135 0.001933
1.696933 -2.377388 -0.026204
2.053243 -2.666528 -0.061447
2.146969 -2.589391 -0.093839
1.554370 -2.356745 -0.101548
1.917486 -2.688961 -0.149567
2.084592 -2.709782 -0.187970
2.232261 -2.694077 -0.225823
1.631823 -2.477000 -0.215170
1.704149 -2.392175 -0.241216
1.834791 -2.387908 -0.275702
1.973291 -2.383223 -0.313799
1.578282 -2.399281 -0.314316
1.555498 -2.370208 0.105393
1.687242 -2.378158 0.080430
1.804155 -2.356093 0.053612
1.959353 -2.374966 0.026708
1.555155 -2.371579 0.001930
1.690788 -2.384214 -0.026222
2.035332 -2.660110 -0.061155
2.168891 -2.632224 -0.095150
1.542751 -2.354815 -0.101260
1.904608 -2.688310 -0.149205
2.069598 -2.707439 -0.187367
2.220813 -2.697061 -0.225501
1.640601 -2.507032 -0.217341
1.681832 -2.376241 -0.239088
1.826248 -2.391943 -0.275520
1.959016 -2.380815 -0.312689
1.569283 -2.401616 -0.313990
1.544945 -2.369946 0.105170
1.673603 -2.374336 0.080126
1.793285 -2.356843 0.053503
1.945718 -2.373233 0.026621
1.543505 -2.369636 0.001925
1.682889 -2.388573 -0.026213
2.024741 -2.663158 -0.061082
2.165238 -2.644280 -0.095345
1.537700 -2.362887 -0.101404
1.891751 -2.687606 -0.148843
2.050411 -2.699463 -0.186378
2.210633 -2.701545 -0.225308
1.673126 -2.573935 -0.222695
1.674534 -2.381389 -0.239088
1.813484 -2.390395 -0.274699
1.971856 -2.411460 -0.315918
1.561907 -2.406419 -0.313990
1.537667 -2.374675 0.105170
1.653696 -2.361445 0.079520
1.782428 -2.357549 0.053395
1.944112 -2.386168 0.026699
1.532425 -2.368483 0.001920
1.669246 -2.384713 -0.026114
2.019574 -2.673346 -0.061173
2.159008 -2.653236 -0.095428
1.523391 -2.356683 -0.100936
1.872619 -2.677842 -0.147983
2.034300 -2.695381 -0.185665
2.200445 -2.705991 -0.225114
1.652778 -2.559784 -0.221031
1.671786 -2.393052 -0.239743
1.786959 -2.370500 -0.271782
1.946253 -2.395107 -0.312992
1.547515 -2.400338 -0.312575
1.527131 -2.374339 0.104947
1.647585 -2.368149 0.079575
1.775187 -2.363006 0.053395
1.921681 -2.373470 0.026491
1.522989 -2.369808 0.001917
1.657925 -2.384077 -0.026051
2.002960 -2.668335 -0.060917
2.150858 -2.659847 -0.095428
1.543151 -2.403393 -0.102734
1.857555 -2.673730 -0.147440
2.024224 -2.699213 -0.185500
2.177707 -2.694877 -0.223633
1.701991 -2.653836 -0.228700
1.663300 -2.396532 -0.239579
1.793409 -2.394304 -0.273879
1.931396 -2.391778 -0.311781
1.546040 -2.414283 -0.313772
1.518225 -2.376486 0.104836
1.629513 -2.357568 0.079051
1.766135 -2.366037 0.053341
1.908748 -2.372342 0.026413
1.516249 -2.375312 0.001918
1.659697 -2.402315 -0.026195
1.982211 -2.657636 -0.060534
2.138931 -2.661758 -0.095261
1.509439 -2.366829 -0.100972
1.847641 -2.676950 -0.147305
2.011757 -2.699806 -0.185116
2.147560 -2.674313 -0.221379
1.697592 -2.664933 -0.229206
1.655940 -2.401623 -0.239579
1.761084 -2.366242 -0.270050
1.916576 -2.388381 -0.310570
1.540760 -2.422370 -0.314207
1.504502 -2.371007 0.104390
1.622838 -2.363381 0.079079
1.758272 -2.370642 0.053322
1.893343 -2.368034 0.026300
1.506278 -2.375730 0.001915
1.638739 -2.387609 -0.025980
1.915112 -2.584180 -0.058727
2.131378 -2.669089 -0.095289
1.500032 -2.368072 -0.100829
1.834900 -2.676014 -0.146943
1.999305 -2.700347 -0.184731
2.075856 -2.601328 -0.214809
1.676077 -2.649058 -0.227397
1.647437 -2.405048 -0.239416
1.755000 -2.373235 -0.270232
1.912962 -2.398917 -0.311176
1.537568 -2.433809 -0.315077
1.495090 -2.372230 0.104242
1.609946 -2.360090 0.078803
1.749804 -2.374415 0.053286
1.882959 -2.369917 0.026257
1.494719 -2.373571 0.001909
1.620703 -2.376928 -0.025809
1.753629 -2.381519 -0.053999
2.127529 -2.681097 -0.095484
1.487438 -2.364204 -0.100469
1.824995 -2.679154 -0.146807
1.982728 -2.695208 -0.183963
1.906652 -2.404387 -0.198062
1.567112 -2.493737 -0.213651
1.649022 -2.423274 -0.240725
1.741225 -2.369781 -0.269229
1.901268 -2.399316 -0.310469
1.533793 -2.444409 -0.315839
1.488335 -2.377653 0.104279
1.599334 -2.360054 0.078637
1.738967 -2.374932 0.053178
1.869483 -2.367834 0.026170
1.484248 -2.373058 0.001905
1.599383 -2.361191 -0.025585
1.738639 -2.376398 -0.053761
2.118056 -2.686041 -0.095428
1.480707 -2.369604 -0.100505
1.811168 -2.676467 -0.146354
1.970915 -2.696442 -0.183633
1.890620 -2.399251 -0.197160
1.462813 -2.343697 -0.200411
1.639906 -2.425845 -0.240480
1.739231 -2.382350 -0.270050
1.880972 -2.388723 -0.308350
1.532595 -2.459227 -0.317145
1.481561 -2.383057 0.104316
1.589294 -2.360803 0.078499
1.721085 -2.365703 0.052853
1.852951 -2.361758 0.026040
1.481182 -2.384396 0.001911
1.583199 -2.352813 -0.025441
1.723698 -2.371207 -0.053524
2.102406 -2.683085 -0.095094
1.475538 -2.377532 -0.100649
1.806292 -2.686986 -0.146626
1.957939 -2.696013 -0.183194
1.873406 -2.392469 -0.196130
1.467702 -2.367671 -0.202075
1.626343 -2.421763 -0.239579
1.737761 -2.395736 -0.270961
1.879153 -2.401535 -0.309259
1.529752 -2.471524 -0.318124
1.863174 -2.389334 0.136951
1.468993 -2.379088 0.103944
1.578154 -2.359851 0.078306
1.712062 -2.368541 0.052799
1.845082 -2.366643 0.026031
1.471235 -2.384674 0.001907
1.573195 -2.353502 -0.025397
1.711146 -2.369190 -0.053360
2.091094 -2.685579 -0.094954
1.471908 -2.388002 -0.100901
1.789718 -2.680053 -0.145947
1.944984 -2.695529 -0.182755
1.873411 -2.407656 -0.196903
1.440561 -2.339888 -0.199325
1.631627 -2.445810 -0.241462
1.722251 -2.389746 -0.269685
1.858952 -2.390795 -0.307140
1.523203 -2.477900 -0.318341
1.715171 -2.386130 0.160693
1.850328 -2.387932 0.136545
1.462732 -2.385288 0.104019
1.570354 -2.363849 0.078279
1.697205 -2.363225 0.052564
1.835363 -2.369130 0.025997
1.467569 -2.395145 0.001912
1.562095 -2.352487 -0.025334
1.708533 -2.380927 -0.053506
2.079787 -2.688028 -0.094815
1.438487 -2.349890 -0.099103
1.734548 -2.614772 -0.142102
1.926234 -2.686877 -0.181767
1.845872 -2.387340 -0.194777
1.432335 -2.342595 -0.199181
1.625767 -2.453297 -0.241708
1.703317 -2.378825 -0.267862
1.858907 -2.405934 -0.308350
1.525436 -2.498682 -0.320409
1.570518 -2.377197 0.182847
1.701459 -2.382442 0.160092
1.833852 -2.381724 0.135868
1.450209 -2.381229 0.103647
1.563094 -2.368656 0.078279
1.688786 -2.366793 0.052528
1.815886 -2.358902 0.025823
1.457614 -2.395365 0.001909
1.554871 -2.357268 -0.025334
1.699479 -2.383715 -0.053451
2.066047 -2.687264 -0.094564
1.432828 -2.356854 -0.099211
1.568213 -2.379844 -0.129072
1.918561 -2.693587 -0.181822
1.830028 -2.381913 -0.193875
1.425659 -2.347831 -0.199253
1.612205 -2.449116 -0.240807
1.697165 -2.385662 -0.268044
1.846065 -2.404524 -0.307442
1.501786 -2.476999 -0.317036
1.563765 -2.382838 0.182911
1.688941 -2.380322 0.159601
1.825322 -2.385752 0.135777
1.440311 -2.381392 0.103461
1.554724 -2.371768 0.078224
1.679782 -2.369516 0.052474
1.806818 -2.362079 0.025797
1.445604 -2.392123 0.001902
1.541055 -2.351990 -0.025226
1.672509 -2.361177 -0.052830
2.057186 -2.692796 -0.094536
1.414227 -2.342417 -0.098420
1.533549 -2.342852 -0.126810
1.905674 -2.692940 -0.181383
1.823922 -2.389103 -0.194004
1.412269 -2.341945 -0.198385
1.613411 -2.467397 -0.242117
1.685814 -2.385165 -0.267406
1.836265 -2.407012 -0.307039
1.451108 -2.410059 -0.307897
1.434960 -2.387366 0.205478
1.555902 -2.386789 0.182847
1.678179 -2.380596 0.159273
1.811948 -2.383388 0.135326
1.431454 -2.383229 0.103350
1.545804 -2.374014 0.078141
1.670777 -2.372206 0.052419
1.800168 -2.368408 0.025806
1.439287 -2.398261 0.001904
1.532741 -2.355031 -0.025208
1.679642 -2.386739 -0.053287
2.046497 -2.695910 -0.094425
1.401381 -2.337317 -0.098025
1.520908 -2.339171 -0.126358
1.893957 -2.693873 -0.181053
1.814172 -2.391507 -0.193746
1.413276 -2.359957 -0.199543
1.599319 -2.462306 -0.241135
1.667043 -2.374026 -0.265582
1.832478 -2.417391 -0.307644
1.427383 -2.387198 -0.304415
1.426096 -2.389188 0.205257
1.545860 -2.387363 0.182527
1.666858 -2.380008 0.158891
1.803423 -2.387342 0.135236
1.420553 -2.381602 0.103090
1.535256 -2.373709 0.077976
1.661772 -2.374863 0.052365
1.788072 -2.367536 0.025736
1.430899 -2.400948 0.001902
1.527137 -2.362241 -0.025235
1.672312 -2.391881 -0.053287
2.037614 -2.701378 -0.094397
1.404940 -2.359638 -0.098780
1.509931 -2.337952 -0.126041
1.883968 -2.697215 -0.180889
1.805625 -2.395468 -0.193618
1.396343 -2.347994 -0.198168
1.597160 -2.475576 -0.241953
1.651775 -2.367696 -0.264306
1.811286 -2.404724 -0.305323
1.411424 -2.377035 -0.302566
1.416725 -2.390121 0.204963
1.532050 -2.382022 0.181759
1.652705 -2.375275 0.158236
1.795491 -2.392065 0.135190
1.414258 -2.387669 0.103164
1.527966 -2.378408 0.077976
1.645917 -2.367636 0.052094
1.775398 -2.365812 0.025658
1.413849 -2.388975 0.001890
1.519342 -2.366074 -0.025226
1.654699 -2.382219 -0.052958
2.020924 -2.696418 -0.094006
1.385996 -2.344151 -0.097953
1.510842 -2.355186 -0.126720
1.869423 -2.693959 -0.180285
1.797669 -2.400198 -0.193553
1.386597 -2.347973 -0.197806
1.601926 -2.499764 -0.243836
1.643936 -2.371933 -0.264215
1.817015 -2.427793 -0.307543
1.405639 -2.383923 -0.302892
1.405844 -2.388440 0.204448
1.522586 -2.383347 0.181502
1.644842 -2.379513 0.158181
1.782171 -2.389554 0.134739
1.401353 -2.382521 0.102756
1.509908 -2.366231 0.077424
1.636941 -2.370206 0.052040
1.769327 -2.372851 0.025676
1.407020 -2.394164 0.001890
1.508312 -2.364823 -0.025163
1.642272 -2.379878 -0.052794
2.001895 -2.688174 -0.093504
1.388917 -2.365628 -0.098672
1.503072 -2.358967 -0.126675
1.857749 -2.694749 -0.179955
1.792084 -2.408103 -0.193746
1.378378 -2.350495 -0.197661
1.592643 -2.502144 -0.243590
1.638910 -2.380247 -0.264579
1.796496 -2.415793 -0.305323
1.388776 -2.371925 -0.300825
1.397503 -2.391019 0.204301
1.518475 -2.393063 0.181887
1.636968 -2.383725 0.158126
1.765910 -2.382971 0.134062
1.393533 -2.385946 0.102718
1.505317 -2.375074 0.077562
1.624005 -2.366972 0.051859
1.763825 -2.380679 0.025702
1.396644 -2.393287 0.001886
1.498374 -2.365215 -0.025118
1.620829 -2.364289 -0.052337
1.993044 -2.693500 -0.093476
1.376620 -2.361245 -0.098312
1.502773 -2.374541 -0.127263
1.842702 -2.690550 -0.179297
1.785281 -2.414392 -0.193811
1.366643 -2.346956 -0.197010
1.598274 -2.528079 -0.245636
1.635536 -2.391017 -0.265218
1.769566 -2.394887 -0.301994
1.373498 -2.362425 -0.299084
1.390662 -2.396158 0.204374
1.507934 -2.392645 0.181502
1.627397 -2.385437 0.157908
1.758591 -2.388377 0.134062
1.385204 -2.388482 0.102644
1.496425 -2.377143 0.077479
1.608289 -2.359551 0.051588
1.749992 -2.377220 0.025606
1.386788 -2.393234 0.001883
1.491643 -2.370647 -0.025127
1.600061 -2.349417 -0.051899
1.986548 -2.702018 -0.093560
1.372373 -2.370647 -0.098528
1.471026 -2.340235 -0.125182
1.829945 -2.689586 -0.178857
1.759549 -2.394928 -0.191814
1.364429 -2.359772 -0.197734
1.619130 -2.578549 -0.250056
1.622596 -2.387787 -0.264306
1.756322 -2.392285 -0.300985
1.375190 -2.382124 -0.301043
1.376831 -2.389180 0.203418
1.496880 -2.391338 0.181054
1.617830 -2.387112 0.157690
1.745357 -2.385699 0.133610
1.373880 -2.385792 0.102347
1.482766 -2.371551 0.077148
1.599361 -2.361990 0.051534
1.738558 -2.376928 0.025545
1.376447 -2.392277 0.001879
1.481714 -2.370973 -0.025083
1.589484 -2.349346 -0.051790
1.966456 -2.691956 -0.093002
1.362604 -2.370514 -0.098348
1.465955 -2.348127 -0.125363
1.816094 -2.686915 -0.178308
1.752782 -2.401121 -0.191879
1.345761 -2.344053 -0.196070
1.705617 -2.734878 -0.264708
1.617491 -2.396055 -0.264671
1.737834 -2.382391 -0.299068
1.353045 -2.360459 -0.297779
1.372466 -2.398587 0.203859
1.478998 -2.378969 0.179773
1.603807 -2.382125 0.157034
1.739204 -2.392659 0.133700
1.367050 -2.390864 0.102384
1.474956 -2.375240 0.077121
1.591549 -2.366057 0.051516
1.724203 -2.372544 0.025441
1.367613 -2.393884 0.001877
1.471796 -2.371259 -0.025038
1.582826 -2.355042 -0.051808
1.947032 -2.682606 -0.092472
1.355820 -2.375551 -0.098384
1.458218 -2.351765 -0.125317
1.794483 -2.672579 -0.176991
1.740134 -2.399217 -0.191299
1.336094 -2.343838 -0.195708
1.485197 -2.397797 -0.231640
1.616234 -2.410104 -0.265673
1.735772 -2.394961 -0.299976
1.346288 -2.365463 -0.297887
1.362638 -2.398451 0.203492
1.468547 -2.378401 0.179389
1.594826 -2.384544 0.156871
1.724836 -2.388265 0.133158
1.352801 -2.382880 0.101864
1.468711 -2.381456 0.077176
1.583727 -2.370097 0.051498
1.713989 -2.373769 0.025398
1.357302 -2.392850 0.001873
1.463465 -2.374061 -0.025020
1.555052 -2.329120 -0.051133
1.928853 -2.674783 -0.091998
1.345076 -2.373613 -0.098133
1.447853 -2.351123 -0.125046
1.797357 -2.694685 -0.178089
1.735098 -2.407782 -0.191556
1.326931 -2.344454 -0.195419
1.450679 -2.358201 -0.227384
1.608832 -2.415052 -0.265673
1.708650 -2.372825 -0.296545
1.337558 -2.366986 -0.297561
1.346943 -2.387853 0.202241
1.462286 -2.384597 0.179517
1.590818 -2.394416 0.157198
1.714007 -2.388676 0.132888
1.350391 -2.395724 0.102235
1.460876 -2.385098 0.077148
1.574789 -2.372445 0.051444
1.704367 -2.375766 0.025363
1.349954 -2.397002 0.001873
1.455130 -2.376834 -0.025002
1.563925 -2.358044 -0.051662
1.918891 -2.678250 -0.091915
1.340728 -2.382954 -0.098348
1.452621 -2.375156 -0.126086
1.778603 -2.684372 -0.177046
1.719570 -2.401735 -0.190655
1.322176 -2.352862 -0.195780
1.439281 -2.355837 -0.226729
1.588775 -2.400875 -0.263576
1.699625 -2.375629 -0.296242
1.327858 -2.366744 -0.297017
1.338149 -2.389364 0.202020
1.451849 -2.383958 0.179133
1.579614 -2.393452 0.156816
1.703771 -2.389856 0.132662
1.339619 -2.393752 0.101975
1.452513 -2.387861 0.077093
1.566402 -2.375596 0.051408
1.694168 -2.376913 0.025320
1.339666 -2.395896 0.001868
1.448870 -2.382996 -0.025020
1.541832 -2.340288 -0.051169
1.912404 -2.686568 -0.091998
1.330000 -2.380949 -0.098097
1.438585 -2.368501 -0.125498
1.772554 -2.693152 -0.177265
1.719713 -2.417570 -0.191492
1.313007 -2.353423 -0.195491
1.428427 -2.354276 -0.226156
1.590154 -2.419053 -0.265035
1.690599 -2.378399 -0.295940
1.323009 -2.375148 -0.297561
1.330328 -2.392587 0.201947
1.442463 -2.384985 0.178877
1.569527 -2.394111 0.156543
1.692389 -2.389365 0.132346
1.327901 -2.389989 0.101641
1.443113 -2.388883 0.076983
1.555272 -2.374536 0.051281
1.685712 -2.380467 0.025303
1.333280 -2.401743 0.001870
1.441552 -2.387430 -0.025020
1.554355 -2.375125 -0.051826
1.905885 -2.694871 -0.092082
1.312995 -2.367539 -0.097378
1.425637 -2.363494 -0.125001
1.749531 -2.676013 -0.175783
1.712288 -2.422835 -0.191492
1.301431 -2.349588 -0.194840
1.419655 -2.356087 -0.225910
1.577825 -2.416415 -0.264215
1.680425 -2.379511 -0.295435
1.312348 -2.373107 -0.296800
1.322017 -2.394910 0.201800
1.433084 -2.385977 0.178620
1.558360 -2.393058 0.156161
1.678152 -2.384742 0.131804
1.313322 -2.380926 0.101084
1.429606 -2.383013 0.076652
1.547980 -2.379296 0.051281
1.675524 -2.381538 0.025259
1.322526 -2.399692 0.001865
1.433707 -2.390984 -0.025011
1.541611 -2.371499 -0.051644
1.894160 -2.695798 -0.091915
1.303315 -2.367179 -0.097198
1.410678 -2.355002 -0.124322
1.701070 -2.619400 -0.171721
1.710582 -2.436244 -0.192136
1.294217 -2.353570 -0.194840
1.413443 -2.362142 -0.226074
1.587203 -2.447145 -0.267041
1.667403 -2.376511 -0.294426
1.307454 -2.381479 -0.297344
1.309391 -2.389335 0.200990
1.424223 -2.387791 0.178428
1.551011 -2.397828 0.156161
1.668538 -2.386605 0.131623
1.304091 -2.381438 0.100935
1.412056 -2.370212 0.076101
1.540673 -2.384034 0.051281
1.663054 -2.379291 0.025181
1.309878 -2.394088 0.001858
1.421248 -2.386779 -0.024921
1.523481 -2.359419 -0.051279
1.674749 -2.399142 -0.081625
1.295568 -2.370290 -0.097162
1.394765 -2.344723 -0.123553
1.501424 -2.327576 -0.152287
1.711663 -2.453757 -0.193102
1.277910 -2.340896 -0.193465
1.407208 -2.368180 -0.226238
1.584541 -2.459537 -0.267862
1.658966 -2.379983 -0.294224
1.292054 -2.370640 -0.295494
1.407292 -2.371431 -0.327990
1.299195 -2.388085 0.200549
1.416891 -2.392150 0.178428
1.537710 -2.393334 0.155560
1.663488 -2.394994 0.131804
1.293915 -2.380160 0.100712
1.412412 -2.387438 0.076514
1.525790 -2.376970 0.051028
1.652324 -2.379454 0.025129
1.301572 -2.396338 0.001856
1.410357 -2.385103 -0.024858
1.521633 -2.372498 -0.051461
1.642315 -2.368127 -0.080397
1.281617 -2.361956 -0.096659
1.394678 -2.361033 -0.124186
1.509898 -2.356552 -0.153879
1.705264 -2.460637 -0.193231
1.266445 -2.336913 -0.192814
1.395377 -2.364761 -0.225501
1.572157 -2.456838 -0.267041
1.651090 -2.384244 -0.294124
1.288559 -2.381588 -0.296364
1.399505 -2.374881 -0.327872
1.289493 -2.387671 0.200181
1.411063 -2.399066 0.178620
1.531435 -2.399724 0.155669
1.652160 -2.394331 0.131488
1.284709 -2.380601 0.100564
1.401537 -2.385727 0.076321
1.517415 -2.379954 0.050992
1.639906 -2.377104 0.025051
1.295164 -2.402080 0.001858
1.401007 -2.385970 -0.024822
1.516496 -2.380528 -0.051534
1.624267 -2.357514 -0.079868
1.273891 -2.364997 -0.096623
1.375802 -2.345482 -0.123146
1.495691 -2.350223 -0.153165
1.712420 -2.487228 -0.194906
1.255490 -2.333761 -0.192235
1.380558 -2.356133 -0.224273
1.572091 -2.473416 -0.268317
1.643768 -2.389298 -0.294124
1.267136 -2.359257 -0.293100
1.389705 -2.374878 -0.327281
1.281219 -2.389858 0.200034
1.402186 -2.400798 0.178428
1.522461 -2.401881 0.155505
1.645372 -2.400212 0.131533
1.275983 -2.381888 0.100452
1.392196 -2.386562 0.076211
1.505827 -2.377840 0.050848
1.629779 -2.378000 0.025008
1.289676 -2.409569 0.001860
1.390658 -2.385074 -0.024769
1.507582 -2.382634 -0.051479
1.611945 -2.355062 -0.079617
1.258618 -2.353912 -0.096012
1.364578 -2.342786 -0.122784
1.471935 -2.328636 -0.151463
1.708725 -2.498236 -0.195357
1.244565 -2.330564 -0.191656
1.374827 -2.362942 -0.224519
1.587354 -2.514436 -0.272238
1.622956 -2.374616 -0.291702
1.250538 -2.345590 -0.290924
1.381914 -2.378272 -0.327163
1.271539 -2.389376 0.199666
1.393813 -2.403362 0.178300
1.508170 -2.395556 0.154796
1.630690 -2.394515 0.130946
1.266324 -2.381380 0.100267
1.381360 -2.384767 0.076018
1.496928 -2.379910 0.050794
1.613471 -2.369764 0.024869
1.278993 -2.407333 0.001856
1.383335 -2.389329 -0.024769
1.496541 -2.381323 -0.051352
1.604150 -2.359170 -0.079589
1.257013 -2.368355 -0.096443
1.364886 -2.359933 -0.123463
1.475934 -2.350899 -0.152616
1.720122 -2.531530 -0.197547
1.235074 -2.329965 -0.191295
1.361588 -2.356793 -0.223537
1.574342 -2.510857 -0.271326
1.617340 -2.382054 -0.292005
1.254031 -2.369624 -0.293427
1.359227 -2.355837 -0.323502
1.262339 -2.389739 0.199372
1.379959 -2.396385 0.177468
1.498696 -2.396785 0.154577
1.621657 -2.397024 0.130810
1.256213 -2.379951 0.100044
1.372044 -2.385528 0.075908
1.488560 -2.382795 0.050758
1.604513 -2.372218 0.024843
1.268802 -2.405938 0.001851
1.371512 -2.385759 -0.024688
1.485522 -2.379966 -0.051224
1.592988 -2.358282 -0.079394
1.243685 -2.360707 -0.095976
1.354157 -2.358045 -0.123146
1.480865 -2.374904 -0.153879
1.682198 -2.492131 -0.194069
1.233493 -2.344335 -0.192163
1.352863 -2.358365 -0.223291
1.556630 -2.499614 -0.269594
1.611137 -2.388654 -0.292206
1.236123 -2.353219 -0.290924
1.358410 -2.371198 -0.325037
1.252686 -2.389184 0.199004
1.368142 -2.392810 0.176891
1.484487 -2.390345 0.153867
1.613181 -2.400330 0.130720
1.246123 -2.378483 0.099821
1.361745 -2.384518 0.075742
1.479134 -2.383953 0.050685
1.593881 -2.372149 0.024791
1.249357 -2.386784 0.001834
1.356751 -2.376929 -0.024553
1.475579 -2.380263 -0.051133
1.581847 -2.357348 -0.079198
1.236437 -2.364511 -0.095976
1.345432 -2.359585 -0.123010
1.457275 -2.353120 -0.152177
1.668987 -2.488992 -0.193424
1.227218 -2.349876 -0.192307
1.348581 -2.367701 -0.223782
1.550001 -2.506072 -0.269776
1.606570 -2.397718 -0.292711
1.242684 -2.383444 -0.294188
1.337873 -2.352049 -0.321848
1.244890 -2.392131 0.198930
1.358824 -2.393525 0.176635
1.473477 -2.388939 0.153485
1.601926 -2.399452 0.130404
1.237898 -2.380522 0.099746
1.355409 -2.390423 0.075797
1.468666 -2.383372 0.050577
1.584375 -2.373701 0.024756
1.242029 -2.390606 0.001834
1.347480 -2.377601 -0.024517
1.464600 -2.378819 -0.051005
1.584032 -2.376330 -0.079672
1.222272 -2.354988 -0.095437
1.336710 -2.361094 -0.122874
1.436972 -2.336318 -0.150805
1.757051 -2.637783 -0.204567
1.218626 -2.350974 -0.192090
1.328064 -2.348404 -0.221572
1.503735 -2.448024 -0.263029
1.605270 -2.411746 -0.293821
1.236737 -2.389894 -0.294515
1.339440 -2.371706 -0.323974
1.232511 -2.386192 0.198121
1.347554 -2.390728 0.176123
1.464577 -2.390894 0.153321
1.593453 -2.402690 0.130314
1.228756 -2.380756 0.099598
1.343655 -2.386731 0.075549
1.458738 -2.383603 0.050487
1.573217 -2.372717 0.024695
1.230564 -2.386406 0.001828
1.337727 -2.377366 -0.024473
1.452080 -2.374771 -0.050822
1.560730 -2.357008 -0.078864
1.223278 -2.374718 -0.096084
1.320649 -2.349509 -0.122060
1.426674 -2.335603 -0.150475
1.779237 -2.688934 -0.208110
1.205020 -2.342285 -0.191078
1.325245 -2.360288 -0.222309
1.460951 -2.394817 -0.256830
1.588536 -2.402551 -0.292106
1.208962 -2.353885 -0.289619
1.327301 -2.367143 -0.322793
1.224274 -2.388188 0.197974
1.339238 -2.393109 0.175995
1.454640 -2.391110 0.153048
1.579480 -2.397557 0.129772
1.221446 -2.384515 0.099598
1.330474 -2.380371 0.075218
1.447264 -2.381231 0.050342
1.567031 -2.379203 0.024713
1.222326 -2.388390 0.001826
1.327989 -2.377094 -0.024428
1.446863 -2.382633 -0.050895
1.557886 -2.368466 -0.079087
1.206889 -2.360664 -0.095365
1.307593 -2.343081 -0.121517
1.439699 -2.373263 -0.152616
1.770979 -2.694380 -0.208110
1.203724 -2.357518 -0.192018
1.312659 -2.354767 -0.221408
1.437085 -2.372033 -0.253912
1.577334 -2.401593 -0.291399
1.208055 -2.369982 -0.291142
1.315685 -2.363395 -0.321730
1.220560 -2.399043 0.198563
1.331406 -2.396334 0.175931
1.444199 -2.390434 0.152721
1.571022 -2.400720 0.129682
1.210049 -2.380234 0.099263
1.320255 -2.379197 0.075053
1.437884 -2.382236 0.050270
1.559724 -2.383999 0.024713
1.213181 -2.388562 0.001824
1.320690 -2.381157 -0.024428
1.439030 -2.386205 -0.050877
1.538037 -2.353988 -0.078445
1.196927 -2.359008 -0.095149
1.304755 -2.354947 -0.121924
1.424167 -2.363984 -0.151738
1.757249 -2.691445 -0.207466
1.193781 -2.355862 -0.191584
1.303016 -2.354423 -0.220999
1.428774 -2.374724 -0.253730
1.561804 -2.393922 -0.289886
1.197188 -2.366581 -0.290272
1.303145 -2.357861 -0.320431
1.205103 -2.386752 0.197238
1.320673 -2.394291 0.175482
1.432235 -2.387148 0.152229
1.563105 -2.404691 0.129636
1.200940 -2.380366 0.099115
1.312949 -2.383236 0.075053
1.427485 -2.381491 0.050161
1.548588 -2.382904 0.024652
1.204947 -2.390487 0.001822
1.313861 -2.386074 -0.024437
1.430161 -2.388035 -0.050822
1.540059 -2.372950 -0.078919
1.189685 -2.362669 -0.095149
1.288858 -2.343183 -0.121110
1.414345 -2.364058 -0.151463
1.743554 -2.688451 -0.206822
1.186099 -2.358623 -0.191512
1.295786 -2.358410 -0.220999
1.414842 -2.367983 -0.252545
