x      y      z
8.706726 -11.799744 1.738746
6.833791 -11.763031 1.504783
8.688405 -11.786967 1.197451
6.608520 -11.415601 -0.474452
6.786155 -11.782502 4.155991
7.412269 -11.811189 4.097710
8.040021 -11.796455 4.042064
8.739214 -11.843678 4.016150
6.718446 -11.656002 3.549576
7.321699 -11.666869 3.484847
7.955016 -11.690576 3.432166
8.729105 -11.857680 3.423718
6.738180 -11.682227 3.023667
7.362116 -11.737185 2.961413
8.050162 -11.839729 2.914964
8.690735 -11.822404 2.843381
6.696505 -11.608569 1.979688
7.363383 -11.751503 1.911743
8.647585 -11.795167 1.734154
6.778797 -11.751225 1.500605
8.629234 -11.782208 1.194273
6.571474 -11.432356 -0.474308
6.713894 -11.740174 4.133777
7.359758 -11.807819 4.088688
8.025910 -11.853732 4.053234
8.682302 -11.842425 4.006674
6.661041 -11.638796 3.538096
7.285358 -11.688454 3.484601
7.883737 -11.662595 3.416834
8.673709 -11.858461 3.416244
6.689214 -11.679982 3.017760
7.314179 -11.740626 2.956605
8.001734 -11.846507 2.910575
8.656160 -11.851389 2.843951
6.659383 -11.626484 1.979250
7.318397 -11.759741 1.909421
8.598494 -11.803983 1.731564
6.724929 -11.740918 1.496647
7.293696 -11.728260 1.389987
8.590701 -11.805403 1.193947
7.301203 -11.743990 0.887466
8.183287 -11.274872 -0.388658
6.425902 -11.258914 -0.466292
6.677844 -11.760717 4.133777
7.319963 -11.824633 4.086714
7.951378 -11.821614 4.033891
8.637408 -11.857310 4.002725
6.612405 -11.636478 3.531208
7.214256 -11.653874 3.467677
7.845210 -11.682694 3.415655
8.582316 -11.809375 3.394502
6.629715 -11.658886 3.007041
7.265261 -11.742220 2.951380
7.954978 -11.855540 2.906784
8.581703 -11.825449 2.831395
6.615369 -11.632240 1.976766
7.259888 -11.745903 1.903549
8.549430 -11.812610 1.728973
6.691334 -11.765814 1.497197
7.254542 -11.745503 1.389387
8.530499 -11.798589 1.190605
7.266711 -11.768881 0.887659
8.257407 -11.450731 -0.393844
6.408082 -11.308136 -0.467514
6.627172 -11.755323 4.124715
7.280133 -11.841313 4.084741
7.892621 -11.812351 4.022449
8.572143 -11.843896 3.989300
6.568596 -11.642394 3.526872
7.169329 -11.661086 3.463262
7.796389 -11.687305 3.409994
8.508413 -11.783531 3.379554
6.577604 -11.650281 2.999602
7.224595 -11.756956 2.949498
7.890850 -11.838306 2.896610
8.505766 -11.796776 2.818269
6.577219 -11.648174 1.976035
7.209826 -11.745326 1.899862
8.490540 -11.807340 1.724381
6.637611 -11.755130 1.493239
8.489029 -11.817419 1.189872
7.846341 -11.809902 0.775343
8.444052 -11.785601 -0.404469
6.375809 -11.332097 -0.467694
6.574728 -11.746393 4.114484
7.198772 -11.789895 4.059366
7.816969 -11.777187 4.002290
8.507041 -11.830193 3.975875
6.515363 -11.631279 3.517433
7.123415 -11.666479 3.458357
7.750297 -11.695778 3.405513
8.386489 -11.690075 3.345356
6.508431 -11.610824 2.984288
7.182378 -11.769048 2.946990
7.818789 -11.808535 2.883442
8.464960 -11.816430 2.816746
6.537098 -11.660532 1.974720
7.008748 -11.496719 1.856162
8.443884 -11.818789 1.722262
6.584504 -11.745094 1.489391
8.437101 -11.821503 1.187671
7.805122 -11.826418 0.774852
8.395681 -11.794351 -0.403884
6.339551 -11.348988 -0.467586
6.532156 -11.754806 4.110392
7.173014 -11.829153 4.065287
7.777623 -11.796295 4.000655
8.455004 -11.834257 3.968505
6.469779 -11.633468 3.512075
7.077536 -11.671699 3.453451
7.696212 -11.691903 3.397493
8.329666 -11.686402 3.336976
6.472305 -11.629884 2.984069
7.135593 -11.773466 2.942601
7.767447 -11.809544 2.877856
8.405896 -11.810352 2.809137
6.499368 -11.677075 1.974135
8.404136 -11.839780 1.721555
6.539255 -11.748739 1.487302
8.370815 -11.805056 1.183433
7.753474 -11.826927 0.773323
8.363497 -11.825766 -0.404079
6.490057 -11.763905 4.106592
7.086699 -11.768091 4.036811
7.732434 -11.806417 3.996023
8.417541 -11.858569 3.967978
6.434057 -11.653262 3.512075
7.023190 -11.662630 3.444376
7.649669 -11.699193 3.392776
8.282516 -11.696005 3.332446
6.420550 -11.620647 2.976631
7.107507 -11.808708 2.945945
7.730644 -11.832498 2.877657
8.361122 -11.824061 2.806283
6.463991 -11.697826 1.974282
8.342018 -11.828989 1.716257
6.495488 -11.754826 1.485543
8.268548 -11.736982 1.174060
7.700806 -11.825556 0.771685
6.467717 -11.808924 4.115361
7.040221 -11.772486 4.030890
7.687781 -11.817180 3.991665
8.372779 -11.872511 3.964030
6.374108 -11.628857 3.498810
6.973942 -11.661656 3.437754
7.568219 -11.652518 3.372491
8.230341 -11.698258 3.325878
6.375952 -11.624035 2.972474
7.067734 -11.824582 2.944482
7.673501 -11.824103 2.869876
8.328192 -11.854477 2.807425
6.426169 -11.714132 1.973697
6.442663 -11.744198 1.481695
7.651474 -11.829005 0.770375
6.503720 -11.898802 -0.487752
6.410444 -11.790063 4.101915
7.004070 -11.794030 4.030890
7.642613 -11.826971 3.987034
8.312511 -11.864168 3.952711
6.328234 -11.629672 3.493197
6.925261 -11.661325 3.431377
7.521897 -11.659350 3.367773
8.181020 -11.704294 3.320443
6.341193 -11.645256 2.972912
6.985003 -11.768003 2.925043
7.603211 -11.794879 2.857108
8.232224 -11.794638 2.787259
6.390674 -11.734661 1.973843
6.402324 -11.756054 1.480705
7.600034 -11.828902 0.768846
6.369246 -11.800417 4.098700
6.941048 -11.770009 4.015384
7.595378 -11.833359 3.981313
8.134428 -11.686123 3.885060
6.288389 -11.641375 3.490901
6.882066 -11.669991 3.427698
7.478227 -11.670099 3.364235
8.132295 -11.710937 3.315234
6.313324 -11.679248 2.976631
6.944397 -11.781795 2.923162
7.578614 -11.836305 2.861497
8.188168 -11.808544 2.784595
6.346644 -11.739418 1.971359
6.359136 -11.762524 1.479056
6.320818 -11.797143 4.090808
6.901512 -11.785452 4.013410
7.544555 -11.833889 3.973684
8.072747 -11.673731 3.872688
6.232996 -11.623972 3.479932
6.823205 -11.651731 3.416170
7.431431 -11.675771 3.359282
8.067567 -11.694141 3.303456
6.259008 -11.664170 2.967880
6.900809 -11.790385 2.920027
7.493886 -11.783430 2.843142
8.134636 -11.808546 2.778698
6.304985 -11.748375 1.969605
6.301399 -11.741693 1.473999
6.253161 -11.757376 4.070346
6.858088 -11.794129 4.009181
7.489682 -11.827715 3.963876
8.021599 -11.676178 3.865317
6.192308 -11.633651 3.477126
6.777192 -11.655011 3.411019
7.391421 -11.691945 3.357395
8.001917 -11.675452 3.291226
6.219065 -11.675566 2.965911
6.851336 -11.788673 2.914383
7.439384 -11.777369 2.836160
8.095597 -11.829396 2.777747
6.263330 -11.757186 1.967852
6.970638 -12.006969 1.913928
6.235905 -11.705705 1.467073
6.200988 -11.746059 4.059823
6.811318 -11.796835 4.002979
7.431845 -11.816429 3.952435
7.960722 -11.664078 3.853209
6.150715 -11.641480 3.473809
6.731224 -11.658117 3.405868
7.337946 -11.686584 3.349375
7.951259 -11.678208 3.285111
6.180935 -11.690278 2.964817
6.801940 -11.786768 2.908739
7.389156 -11.777726 2.830773
8.053747 -11.846059 2.775844
6.213357 -11.750110 1.963468
6.170692 -11.669425 1.460146
7.323535 -11.703054 1.259813
7.339426 -11.737558 0.756997
6.152938 -11.742158 4.051931
6.772708 -11.813515 4.001569
7.393519 -11.835910 3.951345
7.912448 -11.670081 3.847154
6.095212 -11.622618 3.462584
6.680960 -11.653482 3.398510
7.291773 -11.692549 3.344658
7.903389 -11.684798 3.280129
6.115114 -11.652161 2.950378
6.759426 -11.796551 2.906022
7.326559 -11.757925 2.820598
7.989343 -11.829220 2.766142
6.170383 -11.755978 1.961276
7.313626 -11.757735 1.774305
6.125161 -11.669821 1.457837
7.295481 -11.738155 1.261176
7.304435 -11.761717 0.757106
6.227567 -11.909342 -0.483402
6.121297 -11.769464 4.054854
6.718871 -11.803387 3.991137
7.325722 -11.807846 3.934454
7.857206 -11.665496 3.837678
6.059525 -11.641263 3.462584
6.629830 -11.646964 3.390662
7.221582 -11.659513 3.328854
7.845230 -11.675843 3.270843
6.057699 -11.629327 2.939877
6.692738 -11.763684 2.892854
7.283232 -11.768682 2.817805
7.951373 -11.851230 2.765571
6.122403 -11.752042 1.957476
7.276998 -11.779273 1.774178
6.088871 -11.687676 1.457727
7.273558 -11.783362 1.263630
7.265695 -11.779822 0.756833
6.049628 -11.719355 4.031177
6.652887 -11.771323 3.973375
7.256149 -11.776201 3.916474
7.789727 -11.642239 3.822147
6.000704 -11.615128 3.449319
6.573555 -11.630957 3.380115
7.177122 -11.667542 3.324845
7.776928 -11.651249 3.257254
6.066357 -11.733669 2.961536
6.647958 -11.768835 2.889092
7.234778 -11.770936 2.813017
7.904632 -11.860047 2.761956
6.086774 -11.771649 1.957622
6.047050 -11.694824 1.456298
5.843179 -11.343211 -0.458959
6.009721 -11.730200 4.028547
6.605943 -11.772434 3.966890
7.154697 -11.691716 3.881057
7.740622 -11.645997 3.815566
5.955776 -11.615414 3.443962
6.542111 -11.658678 3.382322
7.129640 -11.670433 3.319419
7.736302 -11.667747 3.255216
6.022311 -11.736598 2.957598
6.608472 -11.783205 2.887628
7.201694 -11.798095 2.814214
7.812386 -11.799928 2.742361
6.021271 -11.733059 1.948123
6.001158 -11.693867 1.453879
5.859301 -11.460743 -0.462985
5.960268 -11.722156 4.019485
6.550183 -11.757443 3.955049
7.074320 -11.640431 3.856811
7.698478 -11.660030 3.812407
5.916604 -11.626738 3.441921
6.485080 -11.640585 3.371285
7.087250 -11.681451 3.316353
7.683325 -11.665397 3.247969
5.975648 -11.734150 2.952347
6.554688 -11.771812 2.879895
7.136001 -11.771533 2.802643
7.753491 -11.789390 2.734371
5.967737 -11.717098 1.942424
5.968411 -11.718423 1.454649
5.901012 -11.694283 4.003701
6.507580 -11.765730 3.951102
7.032608 -11.652195 3.853542
7.632511 -11.637611 3.797403
5.865215 -11.613764 3.432737
6.441829 -11.646852 3.367360
7.035831 -11.677336 3.309041
7.612305 -11.635120 3.233021
5.930378 -11.734140 2.947753
6.503403 -11.764479 2.873206
7.076605 -11.754753 2.793465
7.707620 -11.798328 2.730947
5.918373 -11.708865 1.938040
5.908668 -11.689664 1.448822
5.852689 -11.687533 3.995224
6.464526 -11.773024 3.946872
6.983471 -11.651434 3.846186
7.586240 -11.644806 3.792139
5.817859 -11.608364 3.425849
6.391135 -11.639368 3.359512
6.986999 -11.677185 3.302909
7.570734 -11.649436 3.230529
5.886475 -11.736580 2.943815
6.466809 -11.783518 2.872997
7.034977 -11.767157 2.791271
7.648942 -11.787330 2.722956
5.877544 -11.717240 1.936433
5.816804 -11.705435 3.995224
6.427917 -11.791959 3.946590
6.941295 -11.662055 3.842645
7.530561 -11.637247 3.782136
5.776620 -11.614904 3.422532
6.345652 -11.641045 3.354361
6.946673 -11.691047 3.300786
7.527564 -11.661151 3.227359
5.846093 -11.745848 2.941627
6.416591 -11.777541 2.866726
6.991340 -11.776046 2.788278
7.597851 -11.787637 2.717630
5.836278 -11.724589 1.934679
5.765077 -11.581552 1.431011
5.771984 -11.705213 3.989086
6.375728 -11.782092 3.936723
6.896181 -11.667558 3.837469
7.476567 -11.631891 3.772923
5.735824 -11.622167 3.419471
6.297450 -11.637438 3.347739
6.893489 -11.683011 3.292530
7.477031 -11.661232 3.221017
5.807005 -11.757604 2.940096
6.376241 -11.789429 2.864845
6.946221 -11.782245 2.784687
7.534655 -11.768724 2.707927
5.794584 -11.730909 1.932779
5.822677 -11.833520 -0.474380
5.742350 -11.735751 3.993470
6.251924 -11.638472 3.882308
6.838924 -11.652149 3.825482
7.433058 -11.642577 3.768974
5.690785 -11.620605 3.413859
6.253460 -11.641331 3.343324
6.822733 -11.644573 3.275783
7.430756 -11.667686 3.216488
5.769617 -11.772736 2.939440
6.308586 -11.750348 2.850632
6.890238 -11.769675 2.776707
7.485870 -11.771902 2.703361
5.752472 -11.736195 1.930733
5.692117 -11.724064 3.983532
6.210320 -11.646592 3.878643
6.789578 -11.649800 3.817853
7.389038 -11.652291 3.764762
5.650881 -11.629312 3.411308
6.202663 -11.632232 3.335230
6.780134 -11.653691 3.272481
7.382428 -11.670672 3.211052
5.717683 -11.757913 2.931345
6.258250 -11.742894 2.844152
6.858037 -11.797535 2.778303
7.444477 -11.786513 2.701459
5.711679 -11.744003 1.929126
5.394426 -11.135136 -0.445048
5.677288 -11.785412 3.998439
6.141346 -11.602841 3.857779
6.743684 -11.653087 3.812132
7.340915 -11.655314 3.758445
5.599219 -11.613497 3.401613
6.153794 -11.626359 3.328117
6.730738 -11.650877 3.265877
7.331043 -11.668523 3.204258
5.673951 -11.759580 2.927407
6.215791 -11.749937 2.841226
6.816911 -11.810033 2.776308
7.369153 -11.746924 2.687191
5.659285 -11.727615 1.923573
7.326081 -11.724123 1.130537
7.297151 -11.710091 -0.384921
5.365434 -11.162442 -0.445479
5.613062 -11.744101 3.978563
6.094565 -11.600393 3.850731
6.693041 -11.647859 3.803687
7.302053 -11.672873 3.756865
5.551463 -11.605326 3.394215
6.112235 -11.634026 3.324928
6.688193 -11.659670 3.262575
7.289538 -11.681871 3.201766
5.631948 -11.764611 2.924344
6.151527 -11.715272 2.828266
6.758720 -11.792635 2.767331
7.322177 -11.751979 2.683196
5.615588 -11.728860 1.920942
7.322181 -11.785413 1.645139
7.287975 -11.743157 1.130211
7.257508 -11.726473 -0.384726
5.341917 -11.201402 -0.446378
5.571678 -11.750032 3.974763
6.056728 -11.614783 3.849321
6.643923 -11.644938 3.796059
7.257551 -11.681290 3.752390
5.509614 -11.609200 3.390389
6.060376 -11.621778 3.316098
6.633152 -11.646357 3.253140
7.246481 -11.692589 3.198596
5.583269 -11.755392 2.917781
6.099285 -11.702870 2.820741
6.716693 -11.803094 2.764936
7.276273 -11.758526 2.679581
5.576182 -11.738885 1.919773
7.283903 -11.804442 1.644668
7.247206 -11.757824 1.129477
5.307526 -11.217737 -0.446378
5.494488 -11.679670 3.945240
6.015774 -11.623085 3.845938
6.600104 -11.651034 3.791428
7.210027 -11.684618 3.746336
5.469852 -11.617300 3.387838
6.007313 -11.606739 3.306533
6.583518 -11.642122 3.246299
7.200874 -11.699005 3.194292
5.541771 -11.760991 2.914937
6.050323 -11.696338 2.814680
6.661651 -11.790373 2.757156
7.108057 -11.565837 2.630688
5.505983 -11.683453 1.907936
5.275209 -11.238492 -0.446558
5.486130 -11.755401 3.965116
5.974387 -11.630392 3.842273
6.556781 -11.657810 3.787069
7.167088 -11.695167 3.742651
5.429684 -11.624391 3.385031
5.969018 -11.619940 3.305061
6.541109 -11.650401 3.242997
7.138532 -11.677828 3.182515
5.501943 -11.769981 2.912968
6.014411 -11.714845 2.814680
6.611065 -11.785117 2.751171
5.455867 -11.669821 1.902968
5.236908 -11.246469 -0.446234
5.443209 -11.757424 3.960147
5.938242 -11.647812 3.841991
6.510664 -11.659389 3.781075
7.105093 -11.674247 3.728963
5.382207 -11.615551 3.377633
5.926736 -11.625243 3.301382
6.490668 -11.644101 3.235685
7.089024 -11.677193 3.176400
5.462113 -11.778839 2.910999
5.971782 -11.720173 2.811544
6.554853 -11.769388 2.742791
5.421288 -11.689196 1.903406
5.394341 -11.746258 3.950794
5.882121 -11.625738 3.828740
6.461334 -11.654905 3.773175
7.050780 -11.665442 3.719223
5.340084 -11.617953 3.373552
5.879225 -11.620016 3.294760
6.444562 -11.645254 3.230496
7.042102 -11.680537 3.171418
5.394143 -11.726395 2.893935
5.932267 -11.731457 2.809872
6.504489 -11.763717 2.736806
5.384160 -11.703078 1.902968
5.148683 -11.204115 0.909606
5.112020 -11.156649 -0.441417
5.336871 -11.715757 3.935009
5.838677 -11.628297 3.823665
6.402350 -11.632527 3.759553
6.998077 -11.658895 3.710273
5.291981 -11.607008 3.365643
5.834413 -11.619805 3.289609
6.401318 -11.651344 3.226722
6.982717 -11.662809 3.160773
5.353281 -11.732236 2.891309
5.886598 -11.730373 2.805274
6.463653 -11.775027 2.734811
5.346587 -11.715941 1.902383
5.123385 -11.239822 0.911225
5.081903 -11.181377 -0.441777
5.271370 -11.666712 3.913086
5.782008 -11.604077 3.809850
6.361556 -11.642826 3.756557
6.948444 -11.657107 3.702903
5.257143 -11.624951 3.366153
5.793980 -11.628104 3.286911
6.353908 -11.649599 3.220825
6.939437 -11.671619 3.157376
5.309216 -11.730825 2.886934
5.844915 -11.736997 2.802557
6.422339 -11.785337 2.732617
5.292261 -11.691733 1.895807
5.083126 -11.242765 0.910195
6.679101 -11.328519 -0.366878
5.045521 -11.192361 -0.441597
5.226948 -11.663631 3.906655
5.742978 -11.614880 3.807594
6.325807 -11.662289 3.756557
6.890043 -11.640180 3.690794
5.223432 -11.645436 3.367429
5.748825 -11.626707 3.281515
6.306571 -11.647674 3.214929
6.885769 -11.662659 3.149223
5.265608 -11.730144 2.882777
5.808446 -11.753998 2.802348
6.374496 -11.783439 2.727629
5.257987 -11.711525 1.896392
5.043713 -11.247387 0.909312
6.650375 -11.359309 -0.367213
5.011568 -11.208700 -0.441633
5.191140 -11.679612 3.906655
5.702246 -11.622109 3.804211
6.267190 -11.639283 3.742935
6.854788 -11.662095 3.691057
5.197898 -11.684376 3.374062
5.703733 -11.625141 3.276119
6.257465 -11.642144 3.208088
6.838133 -11.663563 3.143787
5.222055 -11.729307 2.878621
5.767191 -11.761226 2.799839
6.317917 -11.764955 2.718851
5.204728 -11.688741 1.890108
5.019314 -11.285589 0.911151
6.410962 -11.981331 0.743074
6.619011 -11.385707 -0.367408
4.969460 -11.206664 -0.440950
5.146411 -11.675356 3.899933
5.651444 -11.608494 3.794061
6.216937 -11.631301 3.734217
6.796607 -11.644744 3.678948
5.156562 -11.687883 3.370490
5.659130 -11.624281 3.270968
6.202505 -11.625277 3.198182
6.792026 -11.666810 3.139031
5.180528 -11.732777 2.875558
5.711400 -11.738414 2.790224
6.260589 -11.744506 2.709674
5.196018 -11.766190 1.900045
6.523580 -11.301207 -0.364034
5.137413 -11.682002 -0.459031
5.393503 -11.144818 -0.560716
5.095245 -11.656040 3.888240
5.607874 -11.609364 3.788704
6.172656 -11.634170 3.729041
6.745853 -11.639665 3.670788
5.105564 -11.669100 3.360541
5.608682 -11.611035 3.262384
6.151346 -11.615052 3.190162
6.743040 -11.664825 3.132916
5.138637 -11.735207 2.872276
5.672809 -11.750597 2.788970
6.205738 -11.728146 2.701494
5.133306 -11.721362 1.890254
5.106518 -11.660195 1.408033
5.102648 -11.665207 0.939254
6.452094 -11.256992 -0.361970
5.102348 -11.699541 -0.459103
5.373555 -11.191030 -0.562209
5.067449 -11.690043 3.894379
5.565596 -11.612670 3.784193
6.119448 -11.619851 3.718416
6.699044 -11.641075 3.664734
5.068585 -11.682048 3.359776
5.568843 -11.619446 3.259931
6.108900 -11.620967 3.186624
6.694129 -11.662649 3.126801
5.090173 -11.722276 2.865275
5.610118 -11.712383 2.775802
6.169727 -11.747131 2.701494
5.079982 -11.697130 1.883824
5.084183 -11.706804 1.411771
5.081123 -11.713744 0.941903
6.416539 -11.274996 -0.361914
5.064844 -11.711470 -0.458959
5.334470 -11.197542 -0.561712
5.013433 -11.663362 3.880348
5.527471 -11.624492 3.782502
6.076193 -11.624074 3.713785
6.657076 -11.650683 3.661312
5.027754 -11.685997 3.356459
5.523594 -11.616339 3.254289
6.065576 -11.625007 3.182614
6.651083 -11.670438 3.123404
5.044538 -11.715431 2.859806
5.571640 -11.724239 2.774548
6.114634 -11.729510 2.693115
5.025290 -11.669048 1.876810
5.049816 -11.725999 1.412211
5.043586 -11.725614 0.941609
6.381918 -11.294628 -0.361914
5.027708 -11.724198 -0.458851
5.283017 -11.177729 -0.559902
4.975002 -11.672530 3.878302
5.481138 -11.618834 3.775171
6.034741 -11.631558 3.710243
6.597975 -11.629936 3.648413
4.993396 -11.704924 3.357480
5.478416 -11.613065 3.248648
6.019605 -11.623714 3.177189
6.588385 -11.643317 3.110721
4.998226 -11.706623 2.853899
5.529388 -11.728010 2.771412
6.050701 -11.694255 2.680745
5.014207 -11.742350 1.412321
5.002111 -11.728189 0.940579
6.359952 -11.336821 -0.362639
4.984676 -11.723014 -0.458204
4.942890 -11.696547 3.881225
5.436926 -11.617347 3.769250
5.993742 -11.639753 3.706974
6.557529 -11.641718 3.645781
4.949552 -11.701487 3.352122
5.432900 -11.608744 3.242762
5.971921 -11.618791 3.170821
6.552633 -11.663475 3.110721
4.959244 -11.714714 2.852149
5.487995 -11.733403 2.768695
6.007633 -11.698816 2.677553
4.969633 -11.737542 1.409902
4.959114 -11.726947 0.939254
6.314440 -11.337068 -0.362026
4.939758 -11.717072 -0.457377
4.899222 -11.693134 3.875087
5.394391 -11.619179 3.764457
5.949246 -11.640952 3.701525
6.494471 -11.612945 3.630513
4.912133 -11.713050 3.351102
5.386237 -11.601616 3.236139
5.926532 -11.618014 3.165631
6.492622 -11.640141 3.099170
4.917239 -11.715478 2.848649
5.451149 -11.748411 2.768277
5.945016 -11.664809 2.665583
4.923597 -11.728905 1.407044
4.902290 -11.692441 0.935282
5.178244 -11.187336 0.791143
6.611459 -11.956486 -0.381156
4.902631 -11.729405 -0.457270
4.858922 -11.697512 3.871579
5.353099 -11.623473 3.760510
5.906976 -11.646277 3.697439
6.447573 -11.612572 3.624196
4.872834 -11.720031 3.348806
5.347374 -11.611041 3.234177
5.889544 -11.633540 3.164924
6.448386 -11.644667 3.095094
4.866278 -11.694472 2.839898
5.403222 -11.739317 2.762216
5.771654 -11.411052 2.603537
4.886444 -11.741203 1.406714
5.157640 -11.233098 0.793257
6.544441 -11.921508 -0.379399
5.098470 -11.139074 -0.554790
4.812816 -11.687604 3.863394
5.310637 -11.625007 3.755717
5.861701 -11.645437 3.691445
6.410984 -11.630609 3.623669
4.823958 -11.703636 3.339877
5.304073 -11.610639 3.229517
5.844227 -11.632451 3.159735
6.406061 -11.652446 3.091923
4.821446 -11.687698 2.834647
5.354997 -11.729151 2.755945
4.842060 -11.735925 1.404295
5.119430 -11.240695 0.792680
6.512141 -11.949430 -0.379650
5.096071 -11.224705 -0.558273
4.772961 -11.692574 3.860179
5.249207 -11.584440 3.737391
5.812617 -11.636682 3.683000
6.366473 -11.634143 3.618668
4.777058 -11.691528 3.332224
5.264426 -11.618026 3.227064
5.792034 -11.617277 3.150771
6.356750 -11.647251 3.085355
4.772639 -11.670824 2.826990
5.310112 -11.725928 2.751346
4.798130 -11.731406 1.401987
5.081633 -11.249073 0.792168
6.486866 -11.990453 -0.380319
5.083760 -11.289474 -0.560716
4.731327 -11.692979 3.855502
5.178245 -11.521730 3.712017
5.764496 -11.629459 3.675099
6.323842 -11.640904 3.614719
4.739351 -11.701649 3.330949
5.218425 -11.611132 3.220687
5.756366 -11.634993 3.150771
6.301499 -11.630729 3.075843
4.732412 -11.674560 2.824365
5.270506 -11.734135 2.749465
4.755394 -11.729491 1.400008
5.038937 -11.246395 0.790887
5.007954 -11.212892 -0.556147
4.690091 -11.694125 3.851118
5.175684 -11.611173 3.735700
5.713927 -11.616871 3.665564
6.280771 -11.646665 3.610507
4.698746 -11.704469 3.327632
5.192645 -11.649224 3.226819
5.707367 -11.625556 3.143459
6.257943 -11.635425 3.071992
4.695482 -11.686307 2.823708
5.230105 -11.740423 2.747166
4.715310 -11.733880 1.398798
4.996304 -11.243563 0.789606
4.649953 -11.697794 3.847610
5.150511 -11.650690 3.743312
5.670242 -11.617918 3.660388
6.233173 -11.643766 3.603663
4.658525 -11.708049 3.324571
5.159625 -11.671307 3.228536
5.658481 -11.615929 3.136147
6.211207 -11.633947 3.066557
4.657440 -11.695218 2.822396
5.188923 -11.744785 2.744449
4.674139 -11.735364 1.397259
4.962189 -11.259751 0.789670
6.355662 -12.010774 -0.379092
5.111020 -11.634866 -0.575510
4.611238 -11.704887 3.845271
5.118980 -11.676103 3.746413
5.627443 -11.620537 3.655757
6.180671 -11.631312 3.593924
4.612652 -11.697100 3.317428
5.119123 -11.676426 3.225592
5.610976 -11.608736 3.129543
6.168188 -11.639179 3.062933
4.616164 -11.695838 2.819114
5.133244 -11.715863 2.733998
5.099905 -11.654713 1.753740
4.628260 -11.724687 1.394291
5.109416 -11.686440 1.283643
5.109459 -11.690988 0.818811
5.092855 -11.690789 -0.577501
4.566612 -11.696709 3.837964
5.077779 -11.679434 3.742466
5.583014 -11.619535 3.650036
6.133705 -11.628887 3.587343
4.558442 -11.664365 3.304162
5.079797 -11.684076 3.223385
5.568191 -11.610999 3.125533
6.125649 -11.645117 3.059536
4.574218 -11.694497 2.815395
5.091041 -11.717207 2.730653
5.073195 -11.691205 1.756881
4.586836 -11.724947 1.392641
5.082245 -11.722144 1.285846
5.073964 -11.707525 0.818875
6.253196 -11.994589 -0.377363
5.056965 -11.706359 -0.577501
4.526219 -11.699069 3.834164
5.039644 -11.689672 3.740775
5.535746 -11.612290 3.642408
6.089050 -11.630557 3.582078
4.523683 -11.681001 3.304928
5.042775 -11.696934 3.222649
5.519599 -11.600824 3.118221
6.069607 -11.625002 3.049344
4.532675 -11.693918 2.811895
5.044621 -11.708522 2.725010
5.831919 -11.208832 1.970718
5.026731 -11.682146 1.753194
4.544376 -11.722282 1.390662
5.044686 -11.734025 1.285445
5.036447 -11.719369 0.818618
5.018666 -11.716308 -0.577229
4.486882 -11.703971 3.831241
5.001872 -11.700667 3.739365
5.496392 -11.621391 3.639956
6.047557 -11.638054 3.578656
4.474661 -11.660521 3.295233
5.006104 -11.710567 3.222158
5.475271 -11.599249 3.113268
6.017332 -11.611571 3.040965
4.489780 -11.689551 2.807519
4.996766 -11.696066 2.718530
5.800677 -11.232818 1.971797
4.504114 -11.725035 1.389343
5.002030 -11.733887 1.283743
4.444871 -11.585913 0.915418
4.993035 -11.717322 0.817402
5.897723 -11.484093 -0.360157
4.978402 -11.721536 -0.576732
4.446879 -11.706953 3.827733
4.963330 -11.709774 3.737391
5.452130 -11.619906 3.634235
6.003421 -11.640262 3.573655
4.442990 -11.685039 3.298295
4.967126 -11.718730 3.220196
5.431417 -11.598390 3.108550
5.980343 -11.627379 3.040285
4.447302 -11.685943 2.803363
4.952087 -11.690630 2.713723
5.765737 -11.249682 1.971643
4.456807 -11.709073 1.385825
4.962909 -11.741845 1.282942
4.426669 -11.645174 0.919023
4.952403 -11.721554 0.816633
5.796643 -11.372995 -0.356114
4.939703 -11.730309 -0.576415
4.412963 -11.725911 3.829487
4.918461 -11.703718 3.730625
5.407928 -11.618260 3.628514
5.956252 -11.636298 3.566811
4.410187 -11.706758 3.300591
4.919131 -11.705314 3.212348
5.391714 -11.606186 3.106192
5.940215 -11.636996 3.038020
4.398691 -11.665750 2.795268
4.903702 -11.676014 2.706825
5.727613 -11.260272 1.970410
4.425071 -11.733852 1.387144
4.920709 -11.742334 1.281340
4.887886 -11.668578 0.811894
4.974894 -11.915953 -0.584784
4.374629 -11.733122 3.827441
4.873675 -11.697497 3.723858
5.364594 -11.618199 3.623338
5.905231 -11.624413 3.557598
4.371884 -11.713893 3.298805
4.874249 -11.698874 3.206461
5.353641 -11.617378 3.104776
5.900523 -11.647345 3.035982
4.358100 -11.666393 2.792205
4.861091 -11.674754 2.703063
5.683244 -11.258386 1.967020
4.381746 -11.727819 1.384836
4.872827 -11.728892 1.278236
4.326352 -11.713296 3.816626
4.829340 -11.691998 3.717374
5.314901 -11.603985 3.613802
5.861289 -11.626107 3.552596
4.333243 -11.719995 3.296764
4.820199 -11.669867 3.194443
5.306258 -11.608117 3.097936
5.852512 -11.641028 3.029641
4.318224 -11.668727 2.789580
4.818907 -11.674246 2.699509
5.638499 -11.255451 1.963475
4.337465 -11.718836 1.382197
4.828863 -11.724466 1.276133
4.278398 -11.614015 -0.445192
4.282838 -11.705857 3.809903
4.789448 -11.696993 3.714272
5.280868 -11.623741 3.614892
5.805737 -11.604347 3.540488
4.292943 -11.721431 3.293448
4.778128 -11.669349 3.190273
5.262594 -11.606640 3.093219
5.808508 -11.642368 3.025337
4.281061 -11.678256 2.788705
4.778995 -11.679019 2.697210
5.600862 -11.266504 1.962397
4.294306 -11.712491 1.379888
4.784596 -11.718960 1.273930
4.277602 -11.682698 0.917772
5.816110 -11.765870 -0.366153
4.269467 -11.700313 -0.447995
4.252118 -11.733328 3.814579
4.752096 -11.708076 3.713145
5.232137 -11.610940 3.605902
5.757238 -11.596181 3.532591
4.256303 -11.732728 3.292937
4.739024 -11.675868 3.188066
5.219387 -11.605892 3.088737
5.764120 -11.642676 3.020808
4.245545 -11.692252 2.788923
4.734320 -11.671877 2.692194
5.568893 -11.288950 1.963321
4.255299 -11.717202 1.378899
4.745261 -11.725283 1.273028
4.244120 -11.702330 0.918287
4.236608 -11.721815 -0.448319
4.209962 -11.729216 3.809026
4.716154 -11.722600 3.713145
5.201594 -11.638357 3.609443
5.720355 -11.611194 3.531801
4.211787 -11.722073 3.286305
4.704266 -11.693051 3.188801
5.182173 -11.618300 3.087794
5.707758 -11.618342 3.009937
4.206682 -11.696958 2.786955
4.683532 -11.649146 2.683624
5.534233 -11.305982 1.963321
4.214958 -11.718043 1.377469
4.706303 -11.732398 1.272227
4.214266 -11.732190 0.919611
4.213425 -11.770512 -0.449685
4.168512 -11.726758 3.804057
4.670217 -11.712060 3.705250
5.179901 -11.685926 3.619251
5.674537 -11.607887 3.525483
4.167052 -11.710343 3.279417
4.666574 -11.702925 3.187575
5.192894 -11.739012 3.115627
5.672940 -11.637549 3.010390
4.172086 -11.713486 2.787830
4.630395 -11.619856 2.673590
5.510313 -11.345127 1.967174
4.169982 -11.705639 1.374501
4.670286 -11.746783 1.272227
4.192291 -11.784527 0.922701
5.405893 -11.194202 -0.346800
4.173954 -11.773963 -0.449325
4.111558 -11.679956 3.784764
4.627563 -11.709380 3.699893
5.143250 -11.700002 3.618706
5.632582 -11.612222 3.521535
4.125963 -11.708481 3.275335
4.621384 -11.693745 3.181198
5.126794 -11.686365 3.097464
5.627032 -11.633856 3.004954
4.069724 -11.675357 3.779210
4.588818 -11.716375 3.697638
5.093488 -11.683973 3.608899
5.584379 -11.603369 3.513638
4.080785 -11.694609 3.267937
4.580891 -11.696134 3.178009
5.099832 -11.722534 3.102889
5.581621 -11.630867 2.999745
4.090804 -11.712150 2.781485
4.537268 -11.592499 2.660840
5.427810 -11.351982 1.962551
5.076323 -11.705336 1.634877
4.090540 -11.709424 1.371972
4.582921 -11.736291 1.268022
4.158994 -11.922084 0.931456
4.136414 -11.899411 -0.453136
4.032949 -11.685075 3.778334
4.536188 -11.687466 3.684105
5.058764 -11.702194 3.609716
5.533789 -11.589106 3.504161
4.042361 -11.699763 3.265896
4.535164 -11.684827 3.171142
5.036129 -11.673880 3.085907
5.541305 -11.638263 2.997254
4.057085 -11.731101 2.783017
4.454295 -11.484193 2.632831
5.376865 -11.334658 1.956695
5.030200 -11.697163 1.631573
4.052322 -11.715343 1.371203
4.540430 -11.733593 1.266219
5.031888 -11.712917 1.163303
4.103187 -11.879172 0.927115
5.299224 -11.236249 -0.346576
4.093058 -11.892202 -0.452381
3.996462 -11.695584 3.777749
4.503410 -11.709387 3.686642
5.012982 -11.694666 3.602633
5.495317 -11.599926 3.502319
4.003944 -11.704790 3.263855
4.493726 -11.684209 3.167217
4.999144 -11.686595 3.085199
5.492677 -11.627906 2.990233
4.018231 -11.735184 2.781048
4.379046 -11.393743 2.609003
5.340382 -11.347525 1.956078
4.014429 -11.722079 1.370543
4.494436 -11.721455 1.263415
4.993198 -11.721887 1.162667
4.080600 -11.932280 0.930279
4.434080 -11.568878 0.795114
5.262185 -11.247022 -0.346409
3.956885 -11.696918 3.774241
4.472248 -11.735700 3.690589
4.977833 -11.711762 3.603178
5.452316 -11.601015 3.497581
3.968325 -11.717935 3.264110
4.453026 -11.685258 3.163783
4.959851 -11.693826 3.083076
5.453257 -11.636766 2.988195
3.975943 -11.728974 2.776672
5.309306 -11.371913 1.957465
3.973660 -11.720220 1.368894
4.446086 -11.702635 1.259911
4.940939 -11.698619 1.158850
4.052608 -11.970248 0.932265
5.224709 -11.256766 -0.346214
3.910959 -11.679078 3.764595
4.423344 -11.715257 3.679876
4.939263 -11.720772 3.601270
5.407323 -11.597577 3.491526
3.924980 -11.708052 3.257987
4.412703 -11.687073 3.160595
4.921315 -11.702717 3.081425
5.410140 -11.637542 2.984118
3.930317 -11.712439 2.769890
5.271486 -11.381872 1.956386
3.931992 -11.715395 1.366915
4.405605 -11.704115 1.258609
4.881561 -11.657690 1.153306
5.137892 -11.159243 -0.342728
3.887748 -11.729147 3.776872
4.377297 -11.701814 3.671417
4.896975 -11.720778 3.596639
5.354707 -11.577337 3.480470
3.897264 -11.744817 3.264876
4.372071 -11.687844 3.157161
4.878657 -11.701615 3.077180
5.373595 -11.652317 2.983665
3.898057 -11.735555 2.772515
5.236954 -11.398890 1.956541
3.891017 -11.712311 1.365156
4.363767 -11.701728 1.256907
4.844245 -11.668932 1.152943
5.098649 -11.164041 -0.342393
3.838628 -11.701038 3.764011
4.343709 -11.721486 3.673391
4.853260 -11.717078 3.590918
5.316749 -11.588449 3.478891
3.864834 -11.767742 3.267937
4.325750 -11.673022 3.149558
4.836794 -11.702158 3.073406
5.309459 -11.606747 2.967811
3.834607 -11.664032 2.752826
5.207285 -11.426591 1.958544
3.849788 -11.708142 1.363287
4.325432 -11.708527 1.256206
4.809181 -11.685581 1.153125
4.312865 -11.679526 0.799021
5.061899 -11.174169 -0.342226
4.257557 -11.571993 -0.558409
3.800940 -11.707302 3.762257
4.301116 -11.716743 3.667752
4.813270 -11.722122 3.587921
5.277575 -11.596804 3.476522
3.797330 -11.682990 3.241150
4.295931 -11.702621 3.153972
4.796448 -11.706151 3.070575
5.263763 -11.600806 2.962149
3.812994 -11.719352 2.763108
5.153890 -11.401997 1.951609
3.810466 -11.709501 1.362077
4.289491 -11.721742 1.256206
4.755251 -11.656020 1.148762
4.281127 -11.703950 0.799789
5.026365 -11.186910 -0.342142
4.264108 -11.700448 -0.563974
3.745113 -11.656994 3.742380
4.263509 -11.725376 3.666342
4.770392 -11.719902 3.582745
5.224111 -11.573372 3.464676
3.754363 -11.672493 3.235028
4.259013 -11.713011 3.153237
4.756855 -11.711808 3.068216
5.209360 -11.575155 2.951505
3.765956 -11.696629 2.755014
5.112013 -11.402429 1.948989
5.222316 -11.664816 1.515383
3.772392 -11.714513 1.361308
4.248762 -11.721751 1.254804
4.682507 -11.579154 1.139766
4.243499 -11.712337 0.799469
4.993241 -11.205017 -0.342226
4.225478 -11.705958 -0.563612
3.728744 -11.729492 3.761965
4.213212 -11.698683 3.653937
4.729014 -11.721097 3.578659
5.199223 -11.613118 3.471784
3.723520 -11.699620 3.239365
4.220102 -11.717814 3.151029
4.720538 -11.725445 3.067981
5.190101 -11.627550 2.960790
3.732720 -11.716495 2.756982
5.075803 -11.415350 1.948527
5.183683 -11.674430 1.514559
3.734624 -11.720350 1.360648
4.208409 -11.722557 1.253502
4.691792 -11.705315 1.150762
4.211254 -11.735634 0.800174
5.239271 -11.854807 -0.361580
4.208041 -11.770603 -0.566100
3.674665 -11.683404 3.743549
4.175045 -11.705228 3.651964
4.690531 -11.729297 3.576752
5.188235 -11.684563 3.488367
3.675702 -11.673176 3.228905
4.174687 -11.704226 3.143916
4.668696 -11.700158 3.057602
5.177272 -11.695075 2.973926
3.678275 -11.669261 2.743200
5.034777 -11.417307 1.946215
5.143439 -11.680281 1.513264
3.693568 -11.715638 1.358779
4.177758 -11.750413 1.255104
4.595928 -11.568797 1.135949
4.181914 -11.767305 0.801454
5.106571 -11.651097 -0.354887
4.168576 -11.774041 -0.565647
3.626870 -11.656271 3.731273
4.137516 -11.713459 3.650554
4.649915 -11.732004 3.573210
5.153141 -11.702191 3.488894
3.632682 -11.661319 3.222527
4.131979 -11.697782 3.138766
4.624202 -11.692739 3.051941
5.133536 -11.693066 2.969396
3.652915 -11.714027 2.751076
5.004872 -11.444468 1.948219
5.106388 -11.693276 1.512910
3.655536 -11.720272 1.358009
4.151602 -11.791330 1.258108
4.513350 -11.463307 1.124226
5.111745 -11.721156 1.045692
4.155069 -11.806438 0.803248
5.079966 -11.687795 -0.355528
3.463409 -11.164578 -0.420461
4.163502 -11.875390 -0.569900
3.598125 -11.690193 3.738580
4.080020 -11.664514 3.631382
4.595607 -11.699645 3.559044
5.106018 -11.692307 3.481260
3.599736 -11.681649 3.225079
4.091270 -11.696677 3.135086
4.586534 -11.702346 3.050762
5.089085 -11.689114 2.964414
3.581293 -11.609558 2.723948
4.966200 -11.451611 1.946832
5.064570 -11.695218 1.511144
3.616924 -11.722884 1.357020
4.136698 -11.865080 1.264617
5.074969 -11.734954 1.045529
4.142144 -11.886037 0.807795
5.051998 -11.721685 -0.356086
3.432658 -11.186617 -0.420892
3.569206 -11.724049 3.745888
4.051123 -11.696922 3.637585
4.554456 -11.700240 3.554957
5.059005 -11.682243 3.473626
3.563035 -11.689863 3.224313
4.053145 -11.702762 3.133370
4.545684 -11.703681 3.047460
5.063237 -11.727922 2.970302
3.572997 -11.710088 2.744950
4.925188 -11.453178 1.944520
3.536673 -11.588867 1.789859
5.021614 -11.694276 1.509025
3.577460 -11.722517 1.355701
4.104823 -11.890882 1.266019
5.027159 -11.722989 1.043084
4.101427 -11.886425 0.806962
5.003049 -11.706795 -0.355166
3.403547 -11.214308 -0.421539
3.534599 -11.739523 3.747349
4.017085 -11.714741 3.639276
4.515769 -11.706976 3.552778
5.025043 -11.702141 3.474942
3.518224 -11.671115 3.216150
4.020367 -11.724312 3.135822
4.504521 -11.703968 3.043922
5.012666 -11.709375 2.961696
3.512246 -11.638787 2.725698
4.887314 -11.461872 1.943441
3.516824 -11.651752 1.797897
4.979488 -11.695009 1.507141
3.531140 -11.699182 1.351743
4.060600 -11.880824 1.263616
4.986489 -11.727350 1.042106
4.073329 -11.923506 0.808627
4.953459 -11.689876 -0.354190
3.372286 -11.235226 -0.421935
3.482738 -11.697151 3.730396
3.967247 -11.686128 3.626589
4.477427 -11.714484 3.550871
4.989118 -11.717503 3.474942
3.479362 -11.671661 3.213344
3.970355 -11.695282 3.124785
4.445739 -11.657805 3.028354
4.971771 -11.713043 2.958752
3.473453 -11.639223 2.723292
4.857898 -11.490464 1.945753
3.472572 -11.634049 1.793513
4.926205 -11.669061 1.501842
3.492957 -11.702341 1.350863
4.036249 -11.929040 1.267421
4.947389 -11.735246 1.041453
4.909054 -11.684743 -0.353576
3.460069 -11.752733 3.744719
3.936266 -11.712795 3.631100
4.437036 -11.716468 3.547329
4.938888 -11.698981 3.464940
3.452559 -11.712887 3.221762
3.927352 -11.686272 3.119144
4.412356 -11.677752 3.030005
4.930145 -11.714775 2.955355
3.441318 -11.661991 2.726135
4.822623 -11.505313 1.945753
4.885397 -11.672212 1.500312
3.455068 -11.706330 1.350094
4.864087 -11.637261 1.031429
3.395131 -11.664125 3.713150
3.897890 -11.717533 3.628844
4.394310 -11.712007 3.541880
4.899993 -11.706959 3.462834
3.402270 -11.674225 3.208241
3.910453 -11.755298 3.134351
4.374124 -11.684864 3.028354
4.873928 -11.681304 2.943125
3.417275 -11.712773 2.735543
4.794886 -11.538303 1.948835
4.840430 -11.665131 1.497486
3.414126 -11.699700 1.348115
3.354570 -11.657944 3.707888
3.846921 -11.683871 3.614748
4.354334 -11.714611 3.538611
4.850003 -11.688076 3.452831
3.364029 -11.676246 3.205945
3.856179 -11.711991 3.119634
4.341296 -11.706428 3.030477
4.835462 -11.689902 2.941539
3.365641 -11.668823 2.722854
4.755701 -11.543824 1.947294
4.798952 -11.666152 1.495720
3.376287 -11.703435 1.347345
4.331322 -11.734157 1.141401
3.312247 -11.645184 3.700581
3.818191 -11.717512 3.621514
4.315381 -11.719789 3.536160
4.810452 -11.693978 3.450198
3.329250 -11.690231 3.206966
3.798303 -11.656478 3.101729
4.311057 -11.735199 3.034487
4.794771 -11.692966 2.938595
3.322067 -11.651882 2.716510
4.722130 -11.562933 1.948065
4.758264 -11.668865 1.494189
3.337640 -11.704179 1.346246
4.282991 -11.713719 1.138130
3.277540 -11.658974 3.701750
3.781341 -11.726431 3.620668
4.276438 -11.724838 3.533708
4.772731 -11.704216 3.448882
3.295727 -11.708766 3.209262
3.758656 -11.656082 3.098541
4.266394 -11.724627 3.028354
4.752639 -11.692282 2.934745
3.292920 -11.685498 2.721979
4.684038 -11.570954 1.946986
4.720954 -11.679726 1.493718
3.300098 -11.708623 1.345586
4.242286 -11.713696 1.136858
3.613297 -11.249653 0.758288
3.249179 -11.695696 3.710227
3.738639 -11.716955 3.614184
4.227370 -11.701705 3.522810
4.733547 -11.710753 3.446513
3.247870 -11.675972 3.197527
3.730540 -11.691571 3.104918
4.217882 -11.702921 3.019391
4.704370 -11.676091 2.927044
3.254698 -11.687086 2.720010
4.002047 -11.125976 1.958700
4.649252 -11.587105 1.947294
4.682882 -11.688624 1.493011
3.262561 -11.712948 1.344926
4.209019 -11.734155 1.137585
3.579673 -11.263539 0.758481
3.202649 -11.666877 3.697950
3.717116 -11.774115 3.628281
4.185291 -11.697407 3.517634
4.692215 -11.711787 3.442565
3.205883 -11.663505 3.191404
3.687648 -11.680774 3.099031
4.175751 -11.698416 3.014909
4.656966 -11.661523 2.919797
3.218827 -11.697016 2.720010
3.968888 -11.140990 1.959190
4.612952 -11.599478 1.946986
4.645534 -11.699244 1.492540
3.222391 -11.707569 1.343167
4.179999 -11.766719 1.139493
3.543304 -11.268756 0.758096
3.168843 -11.684031 3.700288
3.647224 -11.677399 3.595012
4.139422 -11.682078 3.509189
4.632763 -11.666950 3.425191
3.167297 -11.663022 3.188598
3.648905 -11.682778 3.096578
4.137898 -11.705675 3.013494
4.620809 -11.674850 2.919571
3.180878 -11.699304 2.718260
3.935674 -11.155904 1.959680
4.579879 -11.620010 1.948065
4.607074 -11.706972 1.491716
3.182545 -11.703014 1.341518
4.148837 -11.793579 1.140856
3.505158 -11.268138 0.757328
3.442768 -11.114059 -0.526921
3.131744 -11.689080 3.698827
3.621011 -11.719700 3.604598
4.098784 -11.681104 3.505102
4.604719 -11.700858 3.430983
3.132002 -11.674552 3.189108
3.611328 -11.688361 3.095107
4.097792 -11.706391 3.010428
4.582835 -11.683531 2.918212
3.130289 -11.654350 2.705571
3.903381 -11.173514 1.960661
4.543130 -11.631245 1.947602
4.566445 -11.709025 1.490186
3.144563 -11.705044 1.340639
4.138843 -11.881487 1.148126
3.468811 -11.273116 0.756943
3.417434 -11.153224 -0.528278
3.096847 -11.702330 3.699996
3.566251 -11.669279 3.585708
4.062928 -11.693623 3.505102
4.567749 -11.712234 3.430193
3.092207 -11.669151 3.185027
3.572902 -11.691041 3.092899
4.053266 -11.694116 3.004059
4.536030 -11.669393 2.911191
3.081007 -11.612968 2.693757
3.870696 -11.190099 1.961478
4.511348 -11.655264 1.949298
3.540640 -11.614480 1.673851
4.519762 -11.695190 1.486653
3.101754 -11.688698 1.337670
4.086137 -11.847057 1.143583
3.434209 -11.283705 0.756943
3.384939 -11.169392 -0.528550
3.054159 -11.685869 3.691811
3.527380 -11.670063 3.582607
4.027346 -11.706944 3.505375
4.527273 -11.714494 3.426771
3.055413 -11.674841 3.184006
3.535334 -11.696380 3.091428
4.020524 -11.715688 3.006418
4.504058 -11.693252 2.913682
3.043139 -11.613871 2.691788
3.837625 -11.205655 1.962132
4.470615 -11.656135 1.947140
3.518430 -11.669866 1.680269
4.477468 -11.692309 1.484534
3.060587 -11.677967 1.335361
4.089677 -11.976399 1.154851
3.401013 -11.298966 0.757264
4.091193 -11.994530 0.693004
3.346353 -11.165370 -0.527871
3.010646 -11.665552 3.682458
3.489362 -11.673476 3.580351
3.991100 -11.718333 3.505102
4.481997 -11.704003 3.419663
3.010629 -11.649522 3.174567
3.506652 -11.731322 3.097805
3.972057 -11.691163 2.996983
4.455312 -11.673346 2.905302
3.005294 -11.614651 2.689819
3.804496 -11.221113 1.962786
4.426409 -11.647629 1.943441
3.460534 -11.606557 1.669617
4.437348 -11.694849 1.483121
3.023002 -11.680567 1.334592
4.075239 -12.054929 1.161213
2.964924 -11.635812 3.670181
3.448364 -11.666645 3.574994
3.947752 -11.708641 3.498564
4.447780 -11.722208 3.420980
2.973919 -11.654956 3.173547
3.456905 -11.695539 3.085541
3.933692 -11.695926 2.995096
4.414655 -11.674205 2.902132
2.970613 -11.627598 2.690694
3.767227 -11.224315 1.961315
4.389609 -11.658380 1.942979
2.989518 -11.699041 1.783722
4.394110 -11.688889 1.480648
2.986414 -11.686897 1.334262
2.929212 -11.644854 3.670181
3.422782 -11.712164 3.585708
3.915468 -11.731649 3.501833
4.405685 -11.719544 3.416241
2.936022 -11.655587 3.171251
3.418832 -11.698646 3.083579
3.886740 -11.674746 2.986605
4.377451 -11.684045 2.901226
2.932301 -11.626249 2.688288
3.730285 -11.228330 1.960007
4.349678 -11.660684 1.941130
4.353376 -11.689285 1.479000
2.949087 -11.690222 1.333602
2.894625 -11.658427 3.671642
3.385502 -11.718001 3.584298
3.864065 -11.697012 3.487939
4.369373 -11.732102 3.415978
2.900483 -11.665478 3.171506
3.374314 -11.679276 3.075730
3.854554 -11.697691 2.989435
4.341245 -11.696507 2.900999
2.892139 -11.617199 2.684131
3.695203 -11.237847 1.959680
4.306005 -11.652657 1.937585
4.314056 -11.693270 1.477822
2.911526 -11.692463 1.332833
4.269997 -11.591288 1.010156
4.282639 -11.670168 -0.346800
2.856340 -11.657035 3.668427
3.342422 -11.703423 3.576686
3.832646 -11.722530 3.492026
4.324676 -11.721919 3.409134
2.865602 -11.678078 3.172526
3.341661 -11.700759 3.078674
3.806897 -11.673429 2.980236
4.301643 -11.699715 2.898508
2.848801 -11.594748 2.676912
3.659488 -11.245378 1.959027
4.267179 -11.657462 1.936198
4.273389 -11.693392 1.476174
2.873743 -11.693619 1.331953
4.266189 -11.691408 1.017736
2.869525 -11.698477 0.888565
4.250571 -11.693586 -0.347106
2.856646 -11.701567 -0.433258
2.819440 -11.661095 3.666965
3.300767 -11.693309 3.570483
3.785704 -11.700361 3.481946
4.278097 -11.706136 3.400711
2.825437 -11.668959 3.167679
3.298111 -11.683899 3.071561
3.771364 -11.685979 2.980472
4.264729 -11.710112 2.897828
2.812756 -11.601537 2.676474
3.625272 -11.257491 1.959190
4.229037 -11.663996 1.935120
4.233438 -11.695242 1.474761
2.834341 -11.687892 1.330304
4.228267 -11.698817 1.017247
2.829867 -11.691716 0.887388
4.218401 -11.716918 -0.347413
2.814882 -11.685987 -0.432359
2.781654 -11.661319 3.664335
3.260752 -11.688594 3.565972
3.743922 -11.693594 3.476497
4.231327 -11.689270 3.392024
2.787377 -11.668168 3.165128
3.245577 -11.634200 3.055863
3.729878 -11.679905 2.975991
4.226799 -11.717643 2.896469
2.770567 -11.582590 2.670129
3.588022 -11.260101 1.957719
4.191896 -11.673196 1.934503
4.189830 -11.686676 1.472053
2.796156 -11.686865 1.329205
4.210494 -11.762406 1.021648
2.788425 -11.677063 0.885623
4.186798 -11.742045 -0.347776
2.774396 -11.675122 -0.431640
2.744112 -11.662350 3.661996
3.213913 -11.658771 3.553848
3.705995 -11.698605 3.474590
4.191212 -11.690391 3.388602
2.750679 -11.672900 3.164108
3.213476 -11.657187 3.059297
3.694905 -11.694073 2.976698
4.187226 -11.720466 2.893978
2.708352 -11.478021 2.644096
3.554350 -11.273878 1.958210
4.152422 -11.675762 1.932808
4.148307 -11.683566 1.470051
2.757092 -11.681846 1.327665
4.180715 -11.793117 1.023197
2.736581 -11.617612 0.880473
4.155414 -11.768030 -0.348166
2.715529 -11.585308 -0.428009
2.697294 -11.623204 3.647089
3.184432 -11.691719 3.560897
3.664332 -11.691556 3.469141
4.152099 -11.694103 3.385970
2.713322 -11.674691 3.162322
3.175404 -11.658573 3.057089
3.660750 -11.710919 2.978114
4.145075 -11.715810 2.889675
2.652777 -11.398842 2.623968
3.514164 -11.266836 1.955104
4.113956 -11.680991 1.931575
4.109479 -11.687807 1.468991
2.719437 -11.682505 1.326786
4.161021 -11.852908 1.027272
4.154924 -11.882631 -0.351178
2.656715 -11.609983 3.640366
3.144559 -11.686611 3.556386
3.637564 -11.732151 3.477859
4.114922 -11.703147 3.384917
2.677492 -11.682961 3.162322
3.139621 -11.668260 3.057089
3.625092 -11.723023 2.978349
4.105892 -11.719280 2.887410
2.574360 -11.217668 2.580432
3.478999 -11.275678 1.954778
4.079076 -11.696356 1.932038
4.069357 -11.688168 1.467461
2.682026 -11.684012 1.326016
4.136092 -11.898567 1.030125
4.120412 -11.900990 -0.351345
2.620874 -11.617146 3.640073
3.100064 -11.663749 3.546518
3.585472 -11.690823 3.462331
4.074240 -11.702049 3.380968
2.637162 -11.671315 3.156965
3.094844 -11.644107 3.048260
3.579729 -11.703424 2.970566
4.065449 -11.718939 2.884240
3.445254 -11.289130 1.955268
4.039948 -11.699476 1.930496
3.548985 -11.650877 1.560651
4.028624 -11.686515 1.465695
2.640902 -11.668919 1.323378
4.095676 -11.899892 1.029146
2.582937 -11.614864 3.636858
3.060612 -11.659285 3.542289
3.543164 -11.680591 3.456065
4.042407 -11.726350 3.384390
2.600711 -11.676519 3.156199
3.061567 -11.662925 3.050712
3.530018 -11.668773 2.959008
4.027262 -11.724907 2.882654
3.410033 -11.297758 1.954941
3.998282 -11.694986 1.927723
3.512938 -11.660760 1.560524
3.993394 -11.700699 1.465930
2.600761 -11.657565 1.321179
4.072328 -11.951081 1.032488
2.546881 -11.620865 3.636274
3.016642 -11.637044 3.532703
3.509800 -11.699700 3.458517
3.998622 -11.715872 3.377809
2.559486 -11.659888 3.149567
3.023582 -11.663816 3.048505
3.496709 -11.687928 2.961131
3.980923 -11.706776 2.875180
3.373945 -11.303440 1.954124
3.958582 -11.695967 1.925873
3.461571 -11.619199 1.553534
3.952074 -11.696902 1.463928
2.565198 -11.666459 1.321289
2.512630 -11.635167 3.638320
2.978071 -11.635090 3.529320
3.466228 -11.684585 3.450888
3.955248 -11.706149 3.371492
2.521658 -11.658235 3.147016
2.986822 -11.669281 3.047524
3.456424 -11.683690 2.957357
3.940327 -11.705088 2.871783
3.341205 -11.320360 1.955268
3.912322 -11.677140 1.920788
3.913335 -11.700496 1.462869
2.526657 -11.661647 1.319860
2.473340 -11.625985 3.633058
2.941185 -11.639521 3.527910
3.428738 -11.689625 3.449254
3.921763 -11.725548 3.373598
2.486484 -11.668753 3.147781
2.947207 -11.663351 3.043599
3.406103 -11.644806 2.944856
3.901011 -11.706957 2.869292
3.299550 -11.306882 1.951182
3.874924 -11.684399 1.920017
3.873987 -11.702077 1.461573
2.483813 -11.636294 1.316121
2.435895 -11.625094 3.630427
2.904998 -11.646628 3.527346
3.392591 -11.699164 3.448981
3.876979 -11.710965 3.365964
2.450871 -11.677273 3.148036
2.908361 -11.660109 3.040411
3.369012 -11.650533 2.943676
3.862331 -11.710545 2.867253
3.262384 -11.308421 1.949711
3.832896 -11.677457 1.916935
3.831574 -11.694090 1.459101
2.909972 -11.717068 1.215050
2.898756 -11.678879 0.772250
2.888826 -11.698236 -0.545696
2.400218 -11.632512 3.630427
2.871087 -11.662938 3.529602
3.352971 -11.696569 3.445167
3.849743 -11.749390 3.373598
2.412294 -11.671481 3.144464
2.871647 -11.665212 3.039430
3.340998 -11.687911 2.950517
3.812784 -11.680672 2.857062
3.226322 -11.313632 1.948894
3.792473 -11.675065 1.914623
3.789246 -11.685953 1.456628
2.873300 -11.723041 1.214749
2.863387 -11.689656 0.772378
2.851267 -11.700251 -0.545380
2.361473 -11.624826 3.625750
2.831442 -11.655843 3.524809
3.315234 -11.700320 3.443260
3.797312 -11.710673 3.359120
2.374355 -11.668404 3.141658
2.834472 -11.668315 3.037958
3.291914 -11.651347 2.938723
3.773337 -11.681192 2.854344
3.193203 -11.329174 1.949875
3.753310 -11.676298 1.912928
3.749129 -11.684285 1.454980
2.831006 -11.705690 1.212046
2.824462 -11.685776 0.771546
3.525469 -11.052853 -0.323654
2.804148 -11.662321 -0.543208
2.322610 -11.616075 3.620781
2.796564 -11.668207 3.525937
3.277247 -11.703024 3.441081
3.743681 -11.667152 3.343326
2.336836 -11.667100 3.139362
2.797305 -11.671300 3.036486
3.256152 -11.661392 2.938723
3.738075 -11.694570 2.854797
3.160284 -11.345571 1.951019
3.715673 -11.682108 1.912004
3.705451 -11.671123 1.451918
2.786305 -11.677543 1.208241
2.779570 -11.656527 0.769048
3.495755 -11.076963 -0.324044
2.765819 -11.660177 -0.542710
2.284746 -11.611886 3.617274
2.749495 -11.629112 3.511558
3.245946 -11.729715 3.445985
3.702906 -11.662951 3.338851
2.298787 -11.662831 3.136301
2.759700 -11.672279 3.034524
