x      y      z
1.392280 2.910083 0.476546
1.406077 3.237463 0.486573
1.394249 3.561546 0.490095
1.415593 4.042297 0.507836
1.272312 2.659331 0.326089
1.162183 2.673602 0.293398
0.996716 2.543319 0.249273
0.920020 2.623054 0.227314
1.301462 2.717212 0.222252
1.198265 2.755557 0.192838
1.009951 2.874636 0.137719
1.758475 3.664967 0.002767
1.410533 2.920066 0.991206
1.406112 3.216659 1.031617
1.407097 2.915423 0.854102
1.403326 3.210286 0.886419
1.423932 3.616939 0.943486
1.403015 2.909170 0.724140
1.406897 3.216467 0.750386
1.419192 3.601025 0.788044
1.417730 4.025238 0.826989
1.405590 2.914509 0.600528
1.397729 3.194293 0.611915
1.411685 3.579232 0.637374
1.417064 4.013731 0.663892
1.389170 2.880847 0.472454
1.388581 3.170522 0.477150
1.403712 3.553562 0.489586
1.412095 3.992997 0.502184
1.273558 2.641091 0.324330
1.173176 2.676403 0.294099
1.016233 2.569884 0.252181
0.910759 2.571366 0.223075
1.307624 2.708716 0.221884
1.182667 2.697032 0.188996
1.017096 2.866817 0.137493
1.754038 3.627145 0.002742
1.403578 2.883051 0.980099
1.415974 3.212330 1.031617
1.402501 2.883268 0.845939
1.403001 3.182901 0.880041
1.416367 3.565591 0.931221
1.396578 2.873258 0.716264
1.402157 3.179030 0.742652
1.424439 3.582085 0.784852
1.420203 3.993120 0.821282
1.397333 2.874812 0.593229
1.401161 3.175572 0.609150
1.407703 3.537302 0.630674
1.424062 3.994474 0.661427
1.356490 2.791156 0.458425
1.393499 3.155372 0.475512
1.404324 3.523439 0.486027
1.410313 3.949367 0.497239
1.290344 2.655050 0.326529
1.187013 2.685532 0.295501
1.020422 2.557504 0.251272
0.915623 2.560114 0.222342
1.305020 2.682272 0.220045
1.199007 2.711645 0.190277
1.012747 2.827005 0.135732
1.752453 3.595678 0.002723
1.404834 2.863278 0.974837
1.404000 3.158874 1.015828
1.401976 2.859851 0.840327
1.403310 3.157320 0.874155
1.412838 3.525147 0.921786
1.401952 2.861950 0.714514
1.405148 3.159524 0.739099
1.421557 3.543140 0.777271
1.420170 3.954558 0.814243
1.403551 2.865213 0.592134
1.396884 3.139762 0.603100
1.410094 3.511909 0.626915
1.413220 3.925940 0.650793
1.282805 2.619069 0.430805
1.395113 3.132983 0.472780
1.404026 3.491507 0.482214
1.400865 3.885235 0.489703
1.279246 2.611804 0.321692
1.187956 2.665519 0.293699
1.054667 2.619953 0.257724
0.935660 2.591040 0.225276
1.318512 2.689001 0.220927
1.204070 2.700662 0.189764
1.061745 2.634880 0.155342
1.369529 2.769799 0.944437
1.404661 3.134414 1.009344
1.389758 2.813059 0.827826
1.403475 3.131768 0.868268
1.417089 3.504580 0.917540
1.392152 2.820012 0.705107
1.406432 3.136459 0.734710
1.406684 3.475181 0.763305
1.424599 3.928955 0.809867
1.389267 2.814167 0.582463
1.398851 3.118387 0.599815
1.410491 3.481964 0.622339
1.417495 3.900228 0.647249
1.280763 2.594718 0.427444
1.400661 3.119651 0.471415
1.398324 3.446741 0.476622
1.407004 3.865055 0.487701
1.275815 2.584694 0.318833
1.198167 2.666400 0.294199
1.093801 2.693287 0.265267
0.948384 2.601266 0.226417
1.320128 2.671532 0.219824
1.214805 2.702416 0.190148
1.110435 2.731510 0.161239
1.347739 2.704812 0.923684
1.409135 3.118724 1.005679
1.363907 2.739536 0.807418
1.403895 3.107127 0.862627
1.418291 3.476821 0.911407
1.370808 2.755446 0.690011
1.404365 3.106288 0.728648
1.407708 3.447262 0.758118
1.422134 3.884923 0.801686
1.382129 2.778201 0.575894
1.405976 3.108696 0.598778
1.403253 3.433785 0.614494
1.421967 3.875454 0.643858
1.289158 2.591662 0.427590
1.405323 3.104509 0.469776
1.397621 3.414895 0.472809
1.412004 3.842078 0.485346
1.278869 2.570978 0.317624
1.209216 2.669055 0.294900
1.098284 2.680703 0.264358
0.939147 2.551578 0.222342
1.223914 2.700495 0.190277
1.145331 2.792759 0.165061
1.347877 2.684426 0.918130
1.406367 3.087320 0.996938
1.326345 2.643729 0.780376
1.403776 3.081632 0.856740
1.413789 3.435608 0.901737
1.416439 3.840937 0.951901
1.370509 2.733782 0.685636
1.402532 3.077050 0.722795
1.401482 3.402156 0.749140
1.411586 3.819765 0.789130
1.384036 2.760764 0.573156
1.407743 3.087341 0.595494
1.403253 3.403925 0.609918
1.419779 3.833085 0.637540
1.310402 2.614226 0.431975
1.392631 3.051518 0.462402
1.396735 3.383086 0.468996
1.421367 3.831211 0.484522
1.287196 2.567931 0.317734
1.215745 2.661713 0.294500
1.103460 2.669958 0.263631
0.949748 2.556159 0.222994
1.305186 2.600986 0.214674
1.238829 2.711250 0.191301
1.161528 2.807685 0.166153
1.340132 2.648706 0.907315
1.406222 3.062065 0.990172
1.326598 2.624115 0.775784
1.403109 3.055286 0.850609
1.417244 3.414201 0.897255
1.416323 3.804624 0.943974
1.331812 2.636373 0.662227
1.393591 3.032746 0.713389
1.409281 3.391506 0.747744
1.412318 3.785982 0.783043
1.365900 2.703849 0.562208
1.403632 3.053475 0.589790
1.402704 3.373187 0.605179
1.412846 3.778735 0.629218
1.401158 3.045431 0.462129
1.396812 3.354062 0.465564
1.388188 3.706866 0.469333
1.313938 2.577274 0.884222
1.406339 3.037712 0.983687
1.331131 2.613140 0.773743
1.403923 3.032492 0.845458
1.413825 3.376671 0.888528
1.412914 3.760143 0.934009
1.330156 2.613143 0.657414
1.393846 3.008935 0.708791
1.412103 3.369092 0.743754
1.411819 3.749474 0.776384
1.348765 2.649701 0.551807
1.404297 3.030387 0.586160
1.396638 3.329747 0.598151
1.410478 3.737406 0.623054
1.399658 3.017752 0.458578
1.400181 3.333301 0.463277
1.381998 3.656145 0.463446
1.327956 2.585140 0.888315
1.407943 3.016864 0.978330
1.321922 2.575495 0.763794
1.398460 2.996545 0.836628
1.410946 3.340984 0.880272
1.417190 3.736666 0.929253
1.333269 2.599499 0.655008
1.391899 2.980721 0.703147
1.415565 3.348497 0.740163
1.416689 3.727689 0.772769
1.315158 2.564190 0.534837
1.402332 3.001970 0.581493
1.399159 3.307275 0.594883
1.405056 3.688741 0.615657
1.342082 2.617020 0.434459
1.402196 2.999086 0.456393
1.394923 3.292457 0.458193
1.387899 3.637971 0.461680
1.333683 2.576808 0.886853
1.405756 2.988221 0.970436
1.414442 3.327725 1.023797
1.334259 2.580016 0.766345
1.402695 2.981714 0.833685
1.409384 3.308924 0.872960
1.410193 3.684089 0.917249
1.331830 2.577192 0.650413
1.386460 2.945469 0.695832
1.413149 3.314393 0.733579
1.417219 3.694910 0.766872
1.334304 2.581980 0.539398
1.391395 2.954881 0.573195
1.401943 3.285726 0.591777
1.409275 3.665968 0.612575
1.339659 2.592676 0.431098
1.375494 2.918601 0.444785
1.400730 3.278129 0.456795
1.396556 3.627208 0.460855
1.345562 2.580335 0.889484
1.407929 2.969157 0.965643
1.417442 3.306568 1.018621
1.341721 2.575053 0.766090
1.404775 2.962505 0.829515
1.398433 3.255476 0.859987
1.411310 3.653396 0.910681
1.336125 2.566170 0.648663
1.388364 2.926182 0.692278
1.393505 3.240726 0.718217
1.415790 3.657585 0.760023
1.341311 2.576130 0.539033
1.392852 2.934582 0.570084
1.399148 3.251505 0.586384
1.404434 3.620175 0.605640
1.338014 2.570127 0.428029
1.377640 2.900051 0.442600
1.406463 3.263796 0.455397
1.389335 3.575700 0.454850
1.340204 2.574333 0.321032
1.273946 2.679593 0.298605
1.158091 2.684722 0.266812
0.994990 2.557080 0.224380
1.355991 2.601885 0.216440
1.297845 2.728878 0.193927
1.167649 2.704284 0.161075
1.355696 2.580428 0.890945
1.401723 2.932795 0.955211
1.403908 3.247446 1.001730
1.355458 2.582054 0.769406
1.397971 2.924943 0.820195
1.398757 3.228877 0.854091
1.413668 3.626362 0.905019
1.345805 2.565515 0.649538
1.391850 2.910440 0.689561
1.392525 3.211264 0.712631
1.413074 3.617560 0.752604
1.349208 2.572003 0.539033
1.385271 2.895643 0.563343
1.389481 3.201946 0.578213
1.411932 3.606648 0.604099
1.331648 2.538851 0.423499
1.378831 2.879728 0.440142
1.396308 3.213071 0.448914
1.406823 3.588062 0.456970
1.347634 2.569329 0.320922
1.288611 2.689131 0.300107
1.157980 2.661979 0.264903
1.007930 2.567003 0.225521
1.367212 2.603894 0.216955
1.307505 2.727583 0.194119
1.189892 2.732731 0.162986
1.425187 2.712236 0.113900
1.800016 3.422517 0.002632
1.362264 2.573721 0.890069
1.404052 2.914651 0.950700
1.403482 3.219310 0.994375
1.363373 2.577884 0.769407
1.398103 2.902299 0.815044
1.397764 3.199636 0.847486
1.414803 3.596628 0.898678
1.353670 2.561374 0.649538
1.386761 2.877086 0.682663
1.394126 3.188122 0.708441
1.416606 3.594028 0.748608
1.354795 2.563505 0.538121
1.392437 2.887831 0.562651
1.393365 3.184111 0.575761
1.407019 3.561866 0.597318
1.345439 2.546124 0.425398
1.291216 2.675636 0.409552
1.397798 3.189694 0.446245
1.398828 3.535712 0.450847
1.347152 2.549364 0.318943
1.273055 2.635888 0.294600
1.027915 2.594477 0.228210
1.369132 2.588227 0.215998
1.305882 2.702892 0.192646
1.184220 2.697068 0.161075
1.442852 2.725515 0.114643
1.803484 3.403724 0.002622
2.205044 4.157380 -0.169270
1.369704 2.568686 0.889776
1.407121 2.898246 0.946753
1.396315 3.176233 0.982388
1.373094 2.577102 0.770427
1.393874 2.870961 0.807441
1.400522 3.179325 0.843241
1.411098 3.555153 0.889392
1.363356 2.560655 0.650413
1.392590 2.866660 0.681200
1.398761 3.172175 0.705848
1.417830 3.565034 0.743472
1.361268 2.556733 0.537574
1.384931 2.849882 0.556082
1.397950 3.168088 0.573637
1.405136 3.525408 0.591924
1.355569 2.546351 0.426129
1.276021 2.623556 0.402178
1.399159 3.166338 0.443576
1.403042 3.514803 0.448728
1.369446 2.572418 0.322351
1.284620 2.639127 0.295401
1.192419 2.695808 0.268993
1.004794 2.513572 0.221364
1.379881 2.589295 0.216440
1.316789 2.704256 0.193031
1.193701 2.696162 0.161239
1.454969 2.728130 0.114941
1.818627 3.406997 0.002629
2.280898 4.268705 -0.174087
1.377125 2.563629 0.889484
1.400404 2.862029 0.936321
1.402544 3.164018 0.979936
1.382366 2.575433 0.771192
1.386058 2.832710 0.797875
1.399224 3.150146 0.836636
1.411135 3.523681 0.882598
1.371667 2.557320 0.650632
1.388048 2.835147 0.674721
1.400126 3.149065 0.701658
1.407191 3.506912 0.732248
1.371893 2.557743 0.538668
1.397134 2.852696 0.557465
1.396834 3.139447 0.569224
1.403042 3.488995 0.586531
1.360102 2.536077 0.425106
1.263572 2.577822 0.395759
1.404829 3.152970 0.442305
1.399350 3.474557 0.444136
1.362299 2.540175 0.318833
1.283070 2.615521 0.293198
1.212853 2.719422 0.271719
1.045306 2.591818 0.228536
1.385931 2.581534 0.216145
1.320683 2.691245 0.192390
1.217842 2.728046 0.163368
1.469480 2.735097 0.115424
1.826230 3.396117 0.002625
1.388625 2.566120 0.891822
1.373959 2.786298 0.912920
1.402036 3.136861 0.972852
1.389341 2.569479 0.770682
1.384881 2.808446 0.792234
1.402130 3.130761 0.832626
1.410263 3.490436 0.875350
1.381825 2.557392 0.651726
1.387220 2.811582 0.670122
1.398958 3.120612 0.696272
1.413891 3.492568 0.730155
1.378799 2.551792 0.538304
1.372312 2.780388 0.544155
1.405248 3.132446 0.568734
1.395910 3.440727 0.579134
1.363644 2.524059 0.423791
1.280249 2.591697 0.398490
1.414089 3.147741 0.442178
1.393930 3.430687 0.439073
1.372920 2.541230 0.319493
1.289324 2.608005 0.292798
1.216290 2.704789 0.270628
1.152043 2.831396 0.249972
1.399538 2.587797 0.217028
1.322740 2.674657 0.191493
1.236041 2.746150 0.164679
1.159211 2.844746 0.138848
1.480718 2.735849 0.115646
1.392401 3.415979 0.031999
1.830448 3.379068 0.002616
1.399695 2.567726 0.893869
1.337670 2.691854 0.883317
1.400189 3.107105 0.964952
1.398605 2.567752 0.771447
1.376665 2.770326 0.782668
1.406129 3.114045 0.829324
1.415818 3.473466 0.872180
1.387332 2.548855 0.650632
1.360574 2.736386 0.653191
1.398032 3.093090 0.691084
1.410865 3.454586 0.723116
1.391792 2.557049 0.540311
1.351886 2.717961 0.532747
1.413632 3.125424 0.568244
1.404963 3.432771 0.578517
1.391243 2.556359 0.429929
1.294375 2.600172 0.400402
1.420466 3.136159 0.441161
1.390688 2.555339 0.321802
1.284453 2.578210 0.289894
1.223349 2.698324 0.270356
1.149749 2.801109 0.247608
1.405085 2.579112 0.216660
1.303787 2.616103 0.187587
1.244873 2.743254 0.164733
1.161096 2.824544 0.138035
1.489583 2.732170 0.115684
1.402494 3.410767 0.031990
1.833622 3.360269 0.002606
1.409868 2.567611 0.895330
1.345063 2.686022 0.882753
1.401357 3.084399 0.959231
1.410662 2.571078 0.773743
1.322216 2.640397 0.747103
1.406416 3.089375 0.823899
1.415726 3.442982 0.865612
1.400775 2.554854 0.653257
1.333917 2.662254 0.636470
1.403884 2.560526 0.541953
1.342123 2.677698 0.525660
1.385763 2.527789 0.425837
1.317448 2.626295 0.405045
1.426785 3.124568 0.440145
1.401866 2.557162 0.322571
1.332980 2.655175 0.299006
1.248181 2.730787 0.273991
1.172826 2.832561 0.250705
1.411551 2.572166 0.216440
1.306880 2.602280 0.186882
1.249545 2.731250 0.164242
1.180088 2.845884 0.139254
1.496034 2.724084 0.115535
1.833807 3.336225 0.002591
1.419590 2.566621 0.896499
1.324771 2.625350 0.864145
1.398793 3.053842 0.951058
1.413675 3.419014 1.009500
1.422753 2.574355 0.776039
1.323759 2.623346 0.743424
1.396836 3.043534 0.812813
1.410982 3.401735 0.856326
1.411908 2.556524 0.654789
1.349130 2.672117 0.639814
1.397759 3.042603 0.681708
1.397751 3.363366 0.705804
1.416011 2.563953 0.543595
1.405173 3.056634 0.557294
1.397510 3.355676 0.566959
1.396859 2.529588 0.426860
1.325499 2.622241 0.405045
1.361705 2.957996 0.417267
1.416272 3.395716 0.436247
1.409704 2.552849 0.322571
1.175749 2.815154 0.249483
1.421366 2.571315 0.216734
1.289173 2.547505 0.183232
1.273391 2.760952 0.166262
1.173780 2.806308 0.137493
1.509706 2.729100 0.115944
1.417221 3.387337 0.031852
1.834346 3.313086 0.002578
1.430715 2.568101 0.898545
1.314990 2.586209 0.852585
1.405331 3.043421 0.949151
1.402619 3.363018 0.994232
1.432525 2.573357 0.777060
1.326968 2.609766 0.740726
1.426386 2.564118 0.657852
1.336481 2.627000 0.629990
1.432474 2.575063 0.546880
1.358528 2.669413 0.525660
1.429138 2.569381 0.434313
1.343429 2.637582 0.408050
1.448018 3.120253 0.440780
1.421292 3.378540 0.434598
1.430091 2.571096 0.325430
1.379069 2.705452 0.305615
1.282114 2.760107 0.277717
1.189797 2.824393 0.250624
1.435070 2.577398 0.217617
1.355463 2.658223 0.191493
1.286487 2.766992 0.166863
1.188985 2.818341 0.138261
1.521476 2.730566 0.116204
1.446075 2.577044 0.903222
1.323793 2.583870 0.853149
1.404105 3.016415 0.942068
1.403578 3.336468 0.987651
1.442778 2.573167 0.778335
1.334527 2.604820 0.740481
1.410242 3.341862 0.843416
1.435677 2.562284 0.658508
1.338289 2.610704 0.627064
1.442771 2.574945 0.547792
1.344240 2.621411 0.517017
1.433146 2.558081 0.433144
1.349706 2.629922 0.407503
1.457163 3.114898 0.440653
1.397905 3.294632 0.424354
1.437973 2.566696 0.325430
1.382817 2.692358 0.304614
1.285508 2.745338 0.276626
1.213656 2.856505 0.253802
1.441019 2.569504 0.217323
1.284376 2.740429 0.165498
1.205057 2.832145 0.139119
1.533270 2.731986 0.116464
1.845335 3.285203 0.002565
1.458680 2.580921 0.906145
1.333034 2.582354 0.853995
1.395369 2.973767 0.930081
1.410793 3.325041 0.985545
1.453043 2.572938 0.779611
1.339844 2.595545 0.739009
1.399567 2.976904 0.798425
1.407138 3.306152 0.835490
1.444011 2.558717 0.658727
1.335073 2.584864 0.621838
1.392741 2.959566 0.665947
1.403232 3.290757 0.693248
1.445348 2.561087 0.545785
1.347754 2.608524 0.515288
1.421058 3.017688 0.552554
1.416688 3.315415 0.562336
1.449252 2.568318 0.435628
1.351853 2.614330 0.405728
1.372373 2.910349 0.412310
1.383394 3.232811 0.416936
1.449260 2.568332 0.326199
1.295625 2.744984 0.276990
1.224377 2.857348 0.254210
1.452329 2.571149 0.217838
1.308985 2.770783 0.167572
1.205468 2.809156 0.138171
1.544103 2.731618 0.116649
1.430193 3.331881 0.031453
1.847526 3.265600 0.002554
1.470376 2.583083 0.908484
1.340065 2.576550 0.853431
1.393789 2.946858 0.922998
1.402769 3.278124 0.972910
1.464276 2.574351 0.781397
1.345564 2.587122 0.737783
1.399122 2.952398 0.793000
1.409591 3.283919 0.830960
1.458122 2.565303 0.661571
1.337128 2.569479 0.619121
1.402654 2.957050 0.666346
1.405565 3.268399 0.689443
1.462430 2.572882 0.549252
1.333466 2.561567 0.506818
1.427348 3.007075 0.551410
1.415513 3.284739 0.557867
1.456636 2.563000 0.435482
1.377037 2.897166 0.411039
1.390157 3.221258 0.415994
1.460079 2.569059 0.326859
1.463169 2.571883 0.218279
1.555443 2.732079 0.116872
1.430478 3.304536 0.031236
1.855556 3.256441 0.002551
1.483051 2.586856 0.911407
1.347964 2.572427 0.853431
1.399511 2.935620 0.920818
1.401735 3.248118 0.965276
1.479377 2.582432 0.785223
1.349445 2.575253 0.735575
1.402309 2.935815 0.789698
1.395669 3.224159 0.816918
1.469864 2.567592 0.663321
1.346821 2.568829 0.619957
1.394390 2.916487 0.658166
1.399961 3.228044 0.681833
1.473736 2.574356 0.550529
1.415345 3.256820 0.553860
1.469406 2.567104 0.436943
1.379919 2.880404 0.409260
1.400034 3.216978 0.415994
1.473385 2.574056 0.328068
1.477994 2.579496 0.219309
1.566800 2.732495 0.117095
1.423807 3.261641 0.030871
1.807276 3.433212 -0.034807
1.490502 2.581465 0.911114
1.358985 2.574218 0.855405
1.404761 2.923507 0.918366
1.402069 3.221687 0.958696
1.490192 2.582906 0.786754
1.358697 2.573673 0.736311
1.401193 2.910485 0.784037
1.395812 3.197545 0.811256
1.483096 2.572369 0.665727
1.348758 2.553444 0.617240
1.480645 2.568119 0.550164
1.356061 2.566400 0.509411
1.337789 2.774324 0.510226
1.475793 2.560013 0.436505
1.371226 2.593020 0.404363
1.367617 2.832390 0.403032
1.407502 3.207211 0.415288
1.482765 2.572107 0.328398
1.367816 2.584606 0.294300
1.216140 2.767487 0.247201
1.485901 2.574949 0.219309
1.383471 2.613305 0.189764
1.217993 2.767768 0.136680
1.581172 2.738060 0.117541
2.211344 4.169720 -0.042343
1.502741 2.584321 0.913745
1.368678 2.573425 0.856533
1.407432 2.906194 0.914280
1.401479 3.193519 0.951588
1.502967 2.586682 0.789305
1.370228 2.576340 0.738273
1.402904 2.891309 0.780027
1.399730 3.179876 0.807859
1.492450 2.570339 0.666384
1.355667 2.547567 0.616822
1.494441 2.573768 0.552354
1.366242 2.566575 0.510275
1.285922 2.645982 0.487346
1.486620 2.560607 0.437382
1.359146 2.551206 0.398490
1.363279 2.801424 0.399219
1.409700 3.185624 0.413051
1.497136 2.578720 0.329827
1.372462 2.574252 0.293599
1.328341 2.727087 0.276808
1.229874 2.775589 0.248260
1.490787 2.565205 0.218868
1.395709 2.616974 0.190341
1.225263 2.761279 0.136545
1.586551 2.728013 0.117318
2.205749 4.128519 -0.041993
1.510663 2.579698 0.913745
1.375207 2.566677 0.855687
1.385956 2.839605 0.894665
1.406195 3.177735 0.948166
1.514314 2.587901 0.791091
1.377210 2.570415 0.737783
1.401949 2.866913 0.774602
1.502299 2.569117 0.667259
1.365325 2.546844 0.617658
1.387572 2.834880 0.642605
1.502330 2.569170 0.552354
1.371317 2.557163 0.509238
1.495967 2.558596 0.437820
1.368372 2.549643 0.398900
1.453105 2.962871 0.422859
1.434033 3.213931 0.417290
1.502532 2.569824 0.329278
1.384120 2.577041 0.294400
1.230659 2.754513 0.246712
1.561114 2.667348 0.227990
1.399953 2.605646 0.189828
1.236177 2.762978 0.136816
1.602488 2.736067 0.117875
2.247788 4.176325 -0.042549
1.527314 2.589879 0.919007
1.391278 2.577643 0.860762
1.375975 2.797351 0.882678
1.397068 3.131118 0.935531
1.526173 2.589907 0.793132
1.386471 2.568737 0.738519
1.368639 2.777173 0.751487
1.405687 3.141000 0.800159
1.518096 2.577949 0.670759
1.378243 2.552108 0.619957
1.375456 2.788427 0.633029
1.509208 2.562855 0.551989
1.417360 2.867700 0.409895
1.454072 3.232157 0.420233
1.603218 2.720110 0.232919
2.260590 4.169409 -0.042549
1.537694 2.589293 0.920468
1.399180 2.573362 0.860762
1.353355 2.730185 0.862790
1.404293 3.121538 0.933952
1.533618 2.584381 0.792876
1.396198 2.567878 0.739500
1.323986 2.665907 0.722474
1.406504 3.117140 0.795176
1.522514 2.567405 0.669228
1.383263 2.542713 0.618703
1.334715 2.685041 0.610485
1.397551 3.091683 0.657482
1.515057 2.554830 0.551259
1.394514 2.562543 0.512004
1.298797 2.611069 0.483097
1.415809 3.125822 0.535213
1.514665 2.554474 0.438697
1.390624 2.553378 0.400812
1.362472 2.735486 0.391593
1.429115 3.150810 0.410225
1.405620 2.578983 0.295601
1.260313 2.775041 0.249238
1.528077 2.574531 0.220854
1.250625 2.749885 0.136545
2.288709 4.190537 -0.042836
1.550048 2.591950 0.923099
1.406146 2.567375 0.860198
1.314428 2.631337 0.832823
1.390751 3.066257 0.918684
1.547492 2.589624 0.795938
1.409192 2.572935 0.742198
1.405977 3.090646 0.789514
1.535387 2.571099 0.671416
1.399516 2.553894 0.622465
1.407029 3.087381 0.657482
1.524401 2.552702 0.551807
1.398582 2.551343 0.510621
1.308570 2.610600 0.483751
1.524524 2.553213 0.439281
1.398451 2.549100 0.400812
1.334373 2.658601 0.381171
1.388393 3.036232 0.395860
1.412089 2.572042 0.295301
1.536991 2.571543 0.221001
1.256142 2.739679 0.136229
2.297216 4.175611 -0.042755
1.564406 2.597832 0.926899
1.415870 2.566409 0.861325
1.320764 2.623854 0.831733
1.392529 3.045306 0.913683
1.562907 2.597291 0.799764
1.419889 2.573693 0.743669
1.316252 2.610010 0.709501
1.402865 3.058872 0.782493
1.550810 2.578920 0.674697
1.410180 2.554725 0.623719
1.328646 2.632187 0.600310
1.538812 2.558967 0.554179
1.421162 2.573770 0.515980
1.328582 2.630349 0.488163
1.545094 2.569719 0.442935
1.417285 2.564739 0.403953
1.347000 2.663346 0.382442
1.398949 3.034663 0.396213
1.423344 2.573793 0.296002
1.532017 2.545453 0.219162
2.315833 4.179039 -0.042863
1.585757 2.615099 0.934791
1.429796 2.572956 0.864991
1.316186 2.594905 0.823833
1.394999 3.026125 0.909208
1.572372 2.594965 0.800530
1.430132 2.573562 0.744896
1.399981 3.028031 0.775698
1.563769 2.582497 0.676885
1.420388 2.554660 0.624764
1.569063 2.591240 0.562208
1.404486 3.022252 0.395153
1.562562 2.578268 0.222399
2.328643 4.171914 -0.042863
1.598258 2.617568 0.937422
1.440494 2.573580 0.866682
1.327206 2.596852 0.825740
1.403057 3.019207 0.908418
1.581836 2.592605 0.801295
1.445597 2.582697 0.748820
1.322941 2.583720 0.704548
1.401857 3.007830 0.771622
1.569145 2.573521 0.675791
1.431085 2.555410 0.626019
1.334939 2.604800 0.595921
1.391775 2.980897 0.637506
1.572911 2.579698 0.560748
1.438853 2.568438 0.516671
1.327590 2.588789 0.481953
1.561347 2.561035 0.443081
1.434449 2.558587 0.404363
1.440291 3.074583 0.402571
1.297235 2.765683 0.249809
1.564231 2.563247 0.221516
2.330650 4.145574 -0.042665
1.609286 2.617540 0.939176
1.454508 2.580013 0.870348
1.326356 2.575660 0.820291
1.400035 2.988679 0.900521
1.588264 2.585268 0.800530
1.454943 2.580784 0.749556
1.327742 2.573604 0.702897
1.394098 2.967371 0.762336
1.577033 2.568695 0.675791
1.334382 2.584150 0.592130
1.383355 2.939306 0.629516
1.589563 2.589104 0.563850
1.400377 2.969685 0.512097
1.442933 3.055782 0.400688
1.596627 2.598372 0.224974
1.991553 4.198822 -0.129645
1.618819 2.615030 0.940053
1.467154 2.583882 0.873167
1.335138 2.573286 0.820836
1.395604 2.955582 0.891834
1.598223 2.583673 0.801550
1.466683 2.583052 0.751518
1.335184 2.568656 0.702661
1.392356 2.940192 0.756448
1.596707 2.582934 0.680823
1.387317 2.924404 0.627233
1.400574 2.946635 0.508861
1.400235 2.941948 0.386323
1.605640 2.595157 0.225121
2.013480 4.211631 -0.130231
1.628858 2.613297 0.941222
1.482219 2.591862 0.877396
1.343473 2.570031 0.821108
1.398861 2.939091 0.888149
1.612276 2.588606 0.804611
1.477969 2.584431 0.753235
1.345312 2.568852 0.703841
1.398853 2.930633 0.755089
1.607718 2.582994 0.682136
1.471542 2.571838 0.633334
1.391201 2.909506 0.624950
1.388262 2.897771 0.501155
1.616231 2.594451 0.225489
1.966456 3.151867 0.002529
2.213138 4.198633 -0.086657
2.017279 4.186523 -0.129645
1.639409 2.612338 0.942683
1.490642 2.588134 0.877678
1.352696 2.568451 0.821926
1.399526 2.917389 0.882884
1.619697 2.582828 0.804356
1.485891 2.579885 0.753235
1.353187 2.564712 0.703841
1.399814 2.909650 0.750786
1.617189 2.580530 0.682792
1.477473 2.563922 0.632498
1.386055 2.876039 0.618672
1.619944 2.582722 0.224900
1.999522 3.183078 0.002559
2.218506 4.177695 -0.086365
1.648949 2.609721 0.943560
1.500020 2.586038 0.878524
1.365981 2.574488 0.825195
1.398811 2.893105 0.876830
1.633808 2.587658 0.807418
1.502555 2.590409 0.757650
1.364242 2.566555 0.705492
1.404060 2.895702 0.748294
1.624578 2.574731 0.682573
1.490240 2.567835 0.634588
1.362312 2.560659 0.590534
1.394443 2.870890 0.618482
1.509855 2.598812 0.414332
1.629990 2.581113 0.225194
2.057920 3.253838 0.002621
2.236029 4.179685 -0.086548
1.660027 2.609492 0.945314
1.508915 2.583081 0.879088
1.373873 2.570286 0.825195
1.389931 2.852376 0.865774
1.649520 2.594873 0.811244
1.510006 2.584949 0.757405
1.375779 2.569212 0.707379
1.401818 2.868628 0.742406
1.636132 2.575500 0.684104
1.504033 2.573382 0.637097
1.375620 2.810166 0.606306
1.537089 2.629099 0.534475
1.483803 2.536025 0.405045
1.635226 2.571892 0.224827
2.075412 3.259318 0.002630
2.244098 4.164004 -0.086365
1.676278 2.617271 0.949991
1.520238 2.584228 0.881061
1.387226 2.576224 0.828464
1.369333 2.788348 0.847611
1.656430 2.588172 0.810734
1.521862 2.586989 0.759367
1.389653 2.576097 0.710445
1.351658 2.744603 0.711378
1.649809 2.579511 0.686511
1.514401 2.572970 0.638142
1.359478 2.755748 0.595462
1.562638 2.654077 0.540525
1.486547 2.522926 0.403680
1.639345 2.560983 0.224312
2.095117 3.268089 0.002642
2.252569 4.149191 -0.086201
1.690000 2.620957 0.953206
1.533049 2.587806 0.883881
1.392830 2.567728 0.827102
1.665410 2.584703 0.811244
1.532756 2.587313 0.760839
1.399870 2.576091 0.711624
1.659828 2.577719 0.687386
1.523285 2.569994 0.638560
1.580820 2.666215 0.543982
1.493269 2.516650 0.403407
1.650976 2.561810 0.224827
2.108387 3.266687 0.002646
2.265288 4.142261 -0.086201
1.702720 2.622979 0.955837
1.549337 2.597098 0.888674
1.398855 2.560065 0.826012
1.680173 2.590127 0.814561
1.542177 2.585096 0.761574
1.410099 2.576046 0.712804
1.670383 2.576708 0.688480
1.535673 2.572866 0.640441
1.362290 2.719266 0.589375
1.591012 2.664735 0.544674
1.508605 2.524812 0.405455
1.747830 2.696487 0.355444
1.647971 2.540000 0.223355
2.115130 3.255172 0.002642
2.237462 4.061728 -0.084667
1.712328 2.620145 0.956714
1.559274 2.595622 0.889801
1.414590 2.570091 0.830643
1.690755 2.589008 0.815836
1.555592 2.589494 0.764272
1.418465 2.572559 0.713040
1.682013 2.577292 0.690011
1.595627 2.653933 0.543464
1.518387 2.523567 0.406001
1.662846 2.545787 0.224312
2.126749 3.251178 0.002644
1.722461 2.618075 0.957883
1.570706 2.596573 0.891775
1.426667 2.573312 0.833095
1.707189 2.596736 0.819918
1.565035 2.587197 0.765008
1.426351 2.568195 0.713040
1.693663 2.577828 0.691543
1.552443 2.565068 0.640859
1.605292 2.651552 0.543982
1.520475 2.509577 0.404499
1.681059 2.556505 0.225709
2.161463 3.282220 0.002675
1.729957 2.611981 0.957591
1.583656 2.599936 0.894594
1.441592 2.581524 0.837182
1.327753 2.602025 0.797070
1.713546 2.589067 0.819153
1.575991 2.587351 0.766480
1.434698 2.564655 0.713275
1.328378 2.596084 0.678085
1.709100 2.584014 0.694606
1.608292 2.638205 0.542254
1.541066 2.526043 0.407913
1.691096 2.554662 0.226004
2.178706 3.286409 0.002684
2.017782 3.298642 -0.034690
1.737963 2.606661 0.957591
1.595638 2.601608 0.896850
1.452807 2.582960 0.839089
1.328230 2.583354 0.792595
1.732204 2.599891 0.824255
1.588990 2.590768 0.768933
1.443036 2.561088 0.713511
1.330087 2.579876 0.674914
1.606363 2.614997 0.423072
1.701138 2.552782 0.226298
2.189888 3.281373 0.002685
2.056211 3.338413 -0.035175
1.745952 2.601317 0.957591
1.605628 2.599965 0.897978
1.476375 2.606117 0.848079
1.338368 2.583550 0.793912
1.739095 2.592959 0.823745
1.596930 2.585881 0.768933
1.456643 2.566791 0.716342
1.340241 2.580105 0.676047
1.733072 2.585637 0.697887
1.581126 2.558991 0.642949
1.458137 2.567231 0.601108
1.348557 2.591800 0.566165
1.724380 2.572668 0.574799
1.595451 2.581368 0.532574
1.467746 2.582575 0.492086
1.346404 2.582926 0.454307
1.588323 2.567932 0.416243
1.355941 2.597902 0.347467
1.698962 2.532643 0.224974
1.837428 2.737195 0.122556
2.189350 3.258868 0.002672
2.072767 3.342287 -0.035282
3.250490 4.834010 -0.209529
1.757136 2.600702 0.959345
1.616637 2.599916 0.899669
1.484364 2.601576 0.848079
1.344503 2.576011 0.792859
1.750288 2.592419 0.825275
1.605880 2.582616 0.769423
1.470779 2.573278 0.719408
1.344085 2.568214 0.674008
1.745362 2.586778 0.699637
1.592586 2.559940 0.644412
1.473791 2.576355 0.604300
1.351944 2.578955 0.564262
1.739413 2.577961 0.577171
1.599200 2.569772 0.531191
1.473702 2.574635 0.491432
1.359835 2.589280 0.456156
1.734497 2.570965 0.458133
1.594099 2.559683 0.415697
1.473163 2.570570 0.379645
1.363905 2.593729 0.347467
1.713979 2.538163 0.225930
2.192055 3.241367 0.002663
2.117967 3.391892 -0.035875
2.205014 4.175731 -0.131737
3.252982 4.805808 -0.208739
1.768334 2.600044 0.961099
1.628679 2.601449 0.901925
1.493777 2.599512 0.848896
1.355542 2.577851 0.794701
1.760407 2.590236 0.826296
1.616368 2.581786 0.770649
1.488363 2.585598 0.724125
1.354684 2.569248 0.675367
1.757128 2.587062 0.701169
1.605104 2.562501 0.646294
1.485112 2.577764 0.605696
1.360308 2.575664 0.564453
1.752838 2.580746 0.578996
1.607076 2.564853 0.531191
1.487014 2.579504 0.493230
1.365462 2.580729 0.455386
1.738486 2.559903 0.457110
1.609839 2.567370 0.417746
1.503850 2.605555 0.385492
1.369066 2.584268 0.346760
1.371601 2.585997 0.239376
1.729607 2.544440 0.226960
1.450164 2.730663 0.139751
1.931751 2.839895 0.127683
2.131556 3.390457 -0.035928
2.213589 4.161004 -0.131486
3.189492 4.681010 -0.203742
1.776843 2.595396 0.961391
1.643303 2.606992 0.905590
1.503673 2.598248 0.849986
1.367509 2.581352 0.797070
1.778719 2.599986 0.831143
1.626349 2.580095 0.771631
1.500675 2.588586 0.726248
1.365759 2.571101 0.676953
1.770564 2.589714 0.703357
1.615045 2.560873 0.647130
1.496456 2.579129 0.607093
1.368204 2.571478 0.564453
1.764632 2.581038 0.580273
1.624397 2.574905 0.534302
1.524641 2.626121 0.503035
1.378485 2.586119 0.457081
1.746331 2.554557 0.457110
1.624054 2.572471 0.419384
1.478440 2.543474 0.376976
1.383534 2.592320 0.348409
1.750654 2.560881 0.343130
1.639424 2.595011 0.308919
1.524357 2.620258 0.276626
1.383286 2.588809 0.240028
1.756553 2.567105 0.229461
1.642021 2.598318 0.197257
1.512242 2.597347 0.164351
1.471730 2.750864 0.141015
2.291622 3.346821 0.150790
2.206815 3.220431 0.002657
2.148366 3.394041 -0.036036
2.240510 4.180625 -0.132323
1.790766 2.598594 0.964606
1.656435 2.610038 0.908409
1.516966 2.602767 0.852983
1.372697 2.572038 0.795491
1.786687 2.594516 0.831143
1.639971 2.584097 0.774329
1.514980 2.594880 0.729315
1.376398 2.572051 0.678312
1.784033 2.592308 0.705544
1.623418 2.556732 0.647339
1.506834 2.578756 0.608091
1.376087 2.567269 0.564453
1.784248 2.592621 0.584105
1.634929 2.574067 0.535167
1.544641 2.641871 0.506958
1.390620 2.589712 0.458468
1.753039 2.547557 0.456817
1.635127 2.572493 0.420204
1.473208 2.516670 0.373672
1.397124 2.598559 0.349822
1.541450 2.631035 0.278262
1.779695 2.583880 0.231448
2.326264 3.375156 0.152387
2.232583 3.236695 0.002676
2.163605 3.395023 -0.036117
2.246203 4.160538 -0.131904
1.807996 2.606446 0.969575
1.668567 2.611412 0.910665
1.529328 2.605569 0.855435
1.380581 2.567815 0.795491
1.795740 2.590612 0.831653
1.654677 2.589674 0.777517
1.525889 2.595246 0.730730
1.387055 2.572961 0.679670
1.794200 2.590031 0.706419
1.638628 2.563274 0.650265
1.518714 2.580877 0.609687
1.384423 2.563898 0.564643
1.795553 2.591984 0.585200
1.646533 2.574847 0.536377
1.567255 2.661773 0.511697
1.403730 2.594993 0.460163
1.774365 2.561685 0.460325
1.654225 2.584986 0.423072
1.488478 2.524955 0.375578
1.412657 2.608232 0.351705
1.559636 2.643448 0.280080
1.772272 2.556279 0.229461
1.551022 2.856791 0.146930
2.355406 3.395098 0.153613
2.300675 3.313615 0.002746
2.179411 3.396786 -0.036206
1.818721 2.604808 0.971037
1.676571 2.606281 0.910665
1.540252 2.605834 0.857069
1.391210 2.568657 0.797070
1.815299 2.601743 0.837010
1.665761 2.589477 0.778989
1.535329 2.593061 0.731438
1.398661 2.575541 0.681482
1.802138 2.584514 0.706419
1.650718 2.564813 0.651937
1.527124 2.577049 0.609886
1.802372 2.584850 0.584835
1.584471 2.672227 0.514639
1.411684 2.590674 0.460163
1.791834 2.570025 0.462809
1.505331 2.535730 0.377866
1.647979 3.013289 0.155239
2.373249 3.398507 0.154096
2.365823 3.385229 0.002811
2.203386 3.411083 -0.036431
1.831103 2.605475 0.973375
1.690296 2.609983 0.913766
1.549223 2.602750 0.857614
1.398160 2.562683 0.796544
1.825495 2.599327 0.838031
1.681076 2.595746 0.782423
1.543775 2.589173 0.731673
1.411698 2.580637 0.683974
1.811179 2.580570 0.706857
1.663897 2.567944 0.654027
1.537534 2.576559 0.610884
1.815377 2.586551 0.586477
1.595696 2.672436 0.515619
1.805393 2.572613 0.464270
1.516157 2.536208 0.378629
1.806162 3.278591 0.169191
2.388836 3.398568 0.154431
2.376197 3.377955 0.002811
2.219292 3.412689 -0.036520
1.845716 2.609214 0.976883
1.694103 2.598356 0.911511
1.559675 2.602112 0.858976
1.406944 2.560072 0.797070
1.840158 2.603189 0.841092
1.692208 2.595449 0.783894
1.555213 2.590257 0.733324
1.417258 2.572029 0.682841
1.820777 2.577392 0.707513
1.676042 2.569379 0.655700
1.548460 2.576869 0.612081
1.423142 2.578553 0.570731
1.825006 2.583379 0.587025
1.676082 2.568657 0.538278
1.604905 2.669219 0.515946
1.437115 2.599258 0.463245
1.809282 2.561406 0.463247
1.686612 2.582923 0.425257
1.523420 2.530694 0.378502
1.454878 2.628134 0.356180
1.813572 2.565103 0.231742
1.824937 3.288758 0.170004
2.399251 3.391223 0.154431
1.753177 2.679138 0.088315
2.406775 3.399214 0.002835
2.233586 3.411721 -0.036583
1.854821 2.605097 0.977468
1.705226 2.597959 0.913202
1.573617 2.607199 0.862245
1.415259 2.556588 0.797334
1.849818 2.599894 0.841857
1.704951 2.597540 0.786102
1.565163 2.588800 0.734268
1.426088 2.569372 0.683294
1.834330 2.579747 0.709701
1.688211 2.570765 0.657372
1.560924 2.579652 0.613876
1.836342 2.582575 0.588119
1.610531 2.660063 0.515129
1.443641 2.592246 0.462783
1.825157 2.567131 0.465293
1.538889 2.538732 0.380408
1.851102 3.311920 0.171494
2.418339 3.396056 0.154988
2.434603 3.416245 0.002855
2.245143 3.406522 -0.036601
1.865590 2.603281 0.978929
1.719006 2.601520 0.916304
1.586105 2.609759 0.864697
1.432962 2.569928 0.802861
1.859474 2.596565 0.842623
1.715050 2.595532 0.787083
1.576130 2.588966 0.735683
1.434439 2.565835 0.683521
1.851322 2.586803 0.713201
1.701483 2.573731 0.659462
1.570870 2.578198 0.614674
1.448530 2.586904 0.574536
1.845400 2.578528 0.588484
1.698875 2.569005 0.540525
1.614063 2.647528 0.513658
1.837054 2.567150 0.466316
1.551838 2.542465 0.381679
1.824331 2.549371 0.346759
1.865665 3.314060 0.171900
2.430493 3.391058 0.155099
1.789472 2.698321 0.089308
2.447403 3.412009 0.002858
2.258347 3.403784 -0.036646
1.870211 2.592892 0.977175
1.729636 2.600228 0.917713
1.592096 2.601598 0.863608
1.445564 2.573932 0.805494
1.873651 2.599477 0.845429
1.724615 2.592680 0.787819
1.587113 2.589090 0.737098
1.443260 2.563119 0.683974
1.863813 2.587445 0.714951
1.714247 2.575825 0.661343
1.578260 2.572531 0.614475
1.455495 2.580737 0.574155
1.858475 2.580035 0.590127
1.710023 2.568700 0.541562
1.601017 2.608092 0.506958
1.460977 2.585920 0.463245
1.853016 2.572740 0.468362
1.712510 2.570588 0.425803
1.564305 2.545298 0.382823
1.476561 2.610311 0.355591
1.829820 2.540536 0.346319
1.722484 2.583799 0.312524
1.600724 2.602417 0.278807
1.464574 2.586170 0.243044
1.842353 2.555583 0.232404
1.718581 2.577165 0.198795
1.605364 2.607921 0.167463
1.911300 3.370889 0.175151
2.472456 3.427349 0.157105
1.812727 2.715265 0.090052
2.464884 3.414214 0.002866
2.282664 3.417628 -0.036870
3.098606 4.288224 -0.190298
1.889394 2.602619 0.983022
1.742944 2.602881 0.920533
1.607641 2.608989 0.867694
1.471028 2.600553 0.815233
1.885024 2.598412 0.846959
1.735798 2.592209 0.789290
1.597090 2.587516 0.738042
1.456402 2.567999 0.686465
1.875178 2.586455 0.716264
1.725408 2.575429 0.662597
1.585630 2.566843 0.614275
1.470679 2.589064 0.577009
1.871575 2.581485 0.591769
1.722830 2.570806 0.543118
1.602786 2.593097 0.504996
1.472813 2.588296 0.464478
1.863223 2.570247 0.468947
1.719285 2.563677 0.425530
1.601858 2.588563 0.390068
1.474239 2.587649 0.353118
1.851023 2.553419 0.348847
1.733175 2.582634 0.313025
1.602933 2.588180 0.277808
1.477439 2.590322 0.243859
1.854870 2.556377 0.232993
1.721473 2.564423 0.198218
1.606519 2.591950 0.166753
1.937981 3.393637 0.176642
2.493528 3.434303 0.157774
1.846698 2.747856 0.091321
2.482401 3.416344 0.002875
2.292023 3.408950 -0.036852
3.269082 4.857377 -0.265157
1.905268 2.607621 0.987114
1.753066 2.600704 0.921661
1.614116 2.601592 0.866877
1.485686 2.607764 0.818919
1.895268 2.595740 0.847980
1.746994 2.591695 0.790762
1.606560 2.585080 0.738750
1.475385 2.582971 0.691674
1.884830 2.583054 0.716920
1.736581 2.574988 0.663851
1.593498 2.561967 0.614275
1.481540 2.589653 0.578150
1.880066 2.576525 0.591951
1.734014 2.570407 0.544155
1.608128 2.583980 0.504179
1.483695 2.588909 0.465403
1.872849 2.566917 0.469385
1.729914 2.562495 0.426213
1.604546 2.575218 0.388797
1.478217 2.576223 0.352176
1.861192 2.550940 0.349287
1.740533 2.576480 0.312925
1.609285 2.580716 0.277535
1.480911 2.577999 0.243125
1.869762 2.560339 0.233876
1.755594 2.597992 0.201228
1.620807 2.597174 0.167409
1.969800 3.424912 0.178583
2.512896 3.438739 0.158331
1.851199 2.736382 0.091128
2.505857 3.426470 0.002889
2.317604 3.424261 -0.037095
3.175623 4.338481 -0.193390
3.283408 4.846498 -0.265112
1.918359 2.608698 0.989745
1.762653 2.597695 0.922506
1.626678 2.603972 0.869329
1.494159 2.604030 0.819182
1.904940 2.592251 0.848745
1.758203 2.591137 0.792234
1.619123 2.587553 0.740872
1.487674 2.586031 0.693712
1.895056 2.580405 0.717796
1.746121 2.572075 0.664478
1.602390 2.558727 0.614674
1.492419 2.590199 0.579292
1.894364 2.579462 0.593959
1.746872 2.572408 0.545711
1.611857 2.572346 0.502872
1.495582 2.591191 0.466636
1.878958 2.558766 0.468947
1.740551 2.561273 0.426895
1.626144 2.592130 0.392101
1.508473 2.610367 0.357475
1.869597 2.546019 0.349397
1.752346 2.576887 0.313626
1.629374 2.595165 0.279625
1.517262 2.622618 0.247771
1.884696 2.564233 0.234758
1.762434 2.590943 0.201100
1.634611 2.601489 0.168009
1.982301 3.422310 0.178764
2.521658 3.428599 0.158220
1.865212 2.738952 0.091404
2.528806 3.435679 0.002904
2.337670 3.431183 -0.037247
3.108306 4.219293 -0.188501
1.930904 2.608949 0.992083
1.776026 2.600198 0.925326
1.637733 2.603856 0.870963
1.502624 2.600269 0.819445
1.915184 2.589504 0.849766
1.770518 2.592135 0.794196
1.628089 2.584218 0.741344
1.499995 2.589040 0.695751
1.907604 2.580857 0.719546
1.907528 2.580754 0.595601
1.508744 2.589532 0.245081
1.967623 3.373068 0.176506
2.523247 3.408798 0.157663
1.893953 2.762898 0.092396
2.538144 3.426297 0.002902
2.354406 3.433066 -0.037346
3.665845 4.944274 -0.221392
1.940042 2.604547 0.992668
1.786712 2.598690 0.926735
1.648287 2.602883 0.872325
1.515932 2.604819 0.822341
1.926583 2.588270 0.851296
1.780660 2.589886 0.795177
1.642256 2.589058 0.744175
1.511367 2.590315 0.697336
1.922502 2.584387 0.722171
1.776834 2.583067 0.670122
1.917784 2.578045 0.596331
1.905353 2.561615 0.353135
1.493984 2.546208 0.241414
1.859558 3.165460 0.165940
2.534290 3.401842 0.157700
1.880847 2.725810 0.091348
2.548046 3.417692 0.002902
2.360951 3.420067 -0.037283
3.675618 4.925796 -0.221068
3.206913 4.641018 -0.255476
1.949171 2.600113 0.993252
1.796315 2.595563 0.927581
1.658334 2.601059 0.873415
1.523429 2.599323 0.822078
1.937413 2.586216 0.852572
1.795217 2.593977 0.798120
1.656991 2.594655 0.747241
1.521774 2.589865 0.698468
1.939194 2.590194 0.725453
1.787534 2.581623 0.671167
1.930988 2.579233 0.597973
1.913693 2.556411 0.471723
1.923329 2.569284 0.355004
1.499253 2.537322 0.241006
1.689201 2.855373 0.149956
2.556105 3.409242 0.158406
1.893192 2.725774 0.091541
2.571123 3.426656 0.002916
2.372574 3.414449 -0.037301
3.685311 4.907304 -0.220745
3.250228 4.672983 -0.257783
1.960594 2.598701 0.995006
1.807011 2.593976 0.928991
1.667866 2.598389 0.874232
1.538752 2.607100 0.826026
1.950577 2.587209 0.854868
1.804829 2.590843 0.798856
1.669148 2.596098 0.749128
1.533681 2.591890 0.700280
1.952416 2.591246 0.727422
1.799919 2.582545 0.672839
1.941850 2.577223 0.598886
1.929861 2.561590 0.473769
1.928810 2.560195 0.354564
1.507540 2.533567 0.241088
1.729652 2.903387 0.152755
2.571367 3.407766 0.158703
1.906128 2.726507 0.091762
2.579816 3.416358 0.002914
2.373295 3.393224 -0.037148
3.676247 4.864084 -0.219307
3.239340 4.626982 -0.255792
1.977811 2.604861 0.999683
1.819368 2.594704 0.931247
1.678441 2.597300 0.875594
1.550193 2.608172 0.827869
1.970195 2.596618 0.859970
1.817779 2.592438 0.801063
1.682386 2.599123 0.751487
1.545116 2.593030 0.701866
1.963894 2.589909 0.728734
1.810080 2.580213 0.673675
1.955688 2.579088 0.600710
1.522990 2.541754 0.242310
1.829515 2.602793 0.204174
1.705148 2.842385 0.149820
2.584228 3.403044 0.158851
2.298186 3.265920 0.110153
2.587260 3.404446 0.002911
2.379665 3.380204 -0.037086
3.699018 4.863123 -0.219774
1.989277 2.603340 1.001437
1.834512 2.599301 0.934912
1.692173 2.601010 0.878591
1.558188 2.603404 0.827869
1.982260 2.595941 0.861756
1.827960 2.590017 0.802045
1.691943 2.596392 0.752194
1.559078 2.598300 0.704583
1.977750 2.591629 0.730922
1.816860 2.573050 0.673257
1.965977 2.576202 0.601440
1.952143 2.558352 0.475377
1.948703 2.553844 0.355334
1.527692 2.531950 0.241821
1.703013 2.819183 0.148872
2.605578 3.409392 0.159520
2.351528 3.320034 0.112221
2.598907 3.398081 0.002912
2.394649 3.379414 -0.037157
3.709668 4.846197 -0.219522
2.005999 2.608596 1.005821
1.848589 2.602264 0.938013
1.704362 2.602246 0.880771
1.570649 2.606047 0.830238
1.991982 2.592147 0.862521
1.837581 2.586768 0.802780
1.705232 2.599315 0.754553
1.573086 2.603508 0.707301
1.982720 2.581679 0.729828
1.830977 2.576232 0.675557
1.978064 2.575617 0.602718
1.972874 2.569138 0.358303
1.546838 2.545990 0.243614
1.720999 2.829308 0.149685
2.620899 3.407719 0.159817
2.391296 3.354315 0.113627
2.618470 3.401978 0.002922
2.408489 3.376936 -0.037211
3.717810 4.826084 -0.219127
3.230710 4.525424 -0.251811
2.012237 2.600161 1.004944
1.859355 2.600483 0.939423
1.715516 2.601824 0.882405
1.583142 2.608639 0.832607
2.007023 2.595202 0.865582
1.846637 2.582695 0.803271
1.714269 2.595693 0.755025
1.583598 2.602830 0.708434
1.997195 2.584077 0.732235
1.993773 2.579650 0.605090
1.570245 2.566739 0.246059
1.738541 2.838497 0.150452
2.638682 3.409145 0.160263
2.419059 3.371328 0.114454
2.640529 3.408950 0.002935
2.429335 3.384153 -0.037373
3.730149 4.811496 -0.218983
3.249825 4.522792 -0.252218
2.023730 2.598502 1.006698
1.867884 2.595545 0.939705
1.729875 2.606168 0.885674
1.593653 2.607886 0.833923
2.020321 2.595900 0.867878
1.859082 2.583313 0.805233
1.726529 2.596895 0.756912
1.595137 2.603773 0.710019
2.009906 2.584099 0.733985
1.854749 2.576059 0.678483
1.714761 2.577146 0.630236
1.584924 2.583154 0.587282
1.999263 2.570416 0.604360
1.993826 2.563703 0.479761
2.010567 2.585229 0.362260
1.581249 2.567000 0.246548
1.726266 2.799138 0.148646
2.644830 3.395515 0.160003
2.440510 3.379288 0.114978
2.625154 3.367708 0.002906
2.447319 3.387221 -0.037489
3.738131 4.791363 -0.218588
2.042901 2.606582 1.012252
1.879778 2.595241 0.941678
1.741070 2.605649 0.887309
1.604680 2.607914 0.835502
2.028275 2.589689 0.867878
1.873254 2.586233 0.807931
1.737731 2.596432 0.758327
1.607720 2.606328 0.712057
2.028650 2.591752 0.737923
2.019866 2.580529 0.608192
1.612756 2.600252 0.250216
2.670030 3.406261 0.160895
2.455568 3.378254 0.115199
2.679296 3.415501 0.002955
2.461816 3.385358 -0.037552
2.279083 3.385698 -0.074517
3.691717 4.702054 -0.215029
3.659059 5.026945 -0.281580
2.063917 2.616822 1.018683
1.892818 2.596439 0.944216
1.753889 2.607481 0.889761
1.613689 2.604619 0.836029
2.048780 2.599402 0.873236
1.888604 2.590658 0.811120
1.749489 2.596730 0.759978
1.619820 2.608003 0.713869
2.040215 2.590115 0.739235
1.622838 2.598673 0.250542
2.699035 3.421591 0.162009
2.473594 3.381192 0.115557
2.699056 3.419039 0.002965
2.488727 3.400383 -0.037803
2.295629 3.387795 -0.074718
3.681963 4.660125 -0.213627
3.675645 5.017307 -0.281670
2.074314 2.613474 1.019852
1.907586 2.599903 0.947599
1.764038 2.605274 0.890851
1.622694 2.601293 0.836555
2.058548 2.595376 0.874001
1.906866 2.598921 0.815535
1.762357 2.598588 0.762101
1.630396 2.607150 0.715002
2.052395 2.589196 0.740767
1.890532 2.575434 0.682872
1.752716 2.582335 0.635423
1.618533 2.584265 0.590897
2.039937 2.573481 0.609469
2.032700 2.564626 0.483414
1.628681 2.590307 0.250216
2.717597 3.423469 0.162492
2.483956 3.373587 0.115557
2.716997 3.420138 0.002973
2.502113 3.396757 -0.037848
2.310519 3.387344 -0.074864
3.680072 4.628469 -0.212693
3.677978 4.988318 -0.280675
2.087097 2.613075 1.022190
1.919543 2.599441 0.949573
1.779067 2.610186 0.894392
1.638363 2.608557 0.840504
2.070723 2.594339 0.875787
1.917134 2.596178 0.816516
1.781279 2.609221 0.766818
1.642539 2.608730 0.716813
2.060937 2.583650 0.740986
1.904817 2.578274 0.685172
2.055794 2.577202 0.611841
1.643551 2.596246 0.251276
2.729958 3.417458 0.162603
2.496079 3.368360 0.115640
2.721233 3.403975 0.002966
2.512522 3.389065 -0.037848
2.310713 3.365403 -0.074536
3.671778 4.589065 -0.211399
3.683145 4.963372 -0.279906
2.098699 2.611132 1.023944
1.931515 2.598930 0.951546
1.791966 2.611856 0.896844
1.649452 2.608410 0.842083
2.087149 2.598528 0.879358
1.920463 2.584060 0.814553
1.792578 2.608550 0.768233
1.651056 2.604501 0.717040
2.071297 2.580359 0.741861
1.659008 2.602958 0.252417
2.111108 2.627887 0.248663
2.737926 3.405951 0.162455
2.506402 3.360687 0.115640
2.707217 3.365223 0.002940
2.513938 3.369319 -0.037714
2.323870 3.362411 -0.074627
3.685213 4.577000 -0.211363
3.685802 4.935241 -0.278956
2.109105 2.607656 1.025113
1.942353 2.596833 0.952956
1.801611 2.608721 0.897661
1.662628 2.611475 0.844716
2.100582 2.598880 0.881654
1.936511 2.589024 0.817987
1.803889 2.607833 0.769649
1.661659 2.603529 0.718172
1.668600 2.600372 0.252661
2.085304 2.579517 0.244690
2.657232 3.284879 0.157068
2.493297 3.321802 0.114565
2.658384 3.283841 0.002876
2.490038 3.316012 -0.037202
2.347878 3.374963 -0.075065
3.693576 4.558684 -0.211039
3.696724 4.918320 -0.278639
2.115284 2.598947 1.024236
1.956658 2.599294 0.956057
1.810704 2.604762 0.898206
1.673235 2.610423 0.846032
2.112206 2.596924 0.883185
1.951442 2.592365 0.820931
1.813548 2.604679 0.770356
1.674377 2.605793 0.720211
2.098170 2.581230 0.745799
1.678193 2.597752 0.252906
2.095096 2.575428 0.244911
2.319060 2.848910 0.136562
2.401651 3.179338 0.109905
2.480865 3.045404 0.002674
2.489348 3.293997 -0.037041
2.361089 3.371839 -0.075156
3.664602 4.494662 -0.208595
3.698537 4.889428 -0.277644
2.127489 2.597625 1.026283
1.968099 2.597867 0.957749
1.820894 2.602348 0.899296
1.690652 2.619868 0.850770
2.135474 2.609138 0.889562
1.964655 2.593321 0.823138
1.826550 2.606265 0.772479
1.682364 2.600644 0.720211
2.109786 2.579313 0.747111
1.685611 2.591756 0.252824
2.097302 2.562043 0.244249
2.328422 2.842555 0.136599
2.423493 3.187870 0.110456
2.291268 3.253509 0.071891
2.629668 3.207919 0.002823
2.490361 3.274406 -0.036906
2.370846 3.363763 -0.075138
3.647314 4.445541 -0.206834
3.706864 4.869314 -0.277146
2.153087 2.612487 1.034759
1.977805 2.594106 0.958595
1.833855 2.603829 0.901748
1.701835 2.619523 0.852349
2.150230 2.610784 0.892369
1.979655 2.596532 0.826081
1.837898 2.605413 0.773894
1.694587 2.602000 0.722022
2.126991 2.584129 0.750393
1.782339 2.725077 0.386087
1.688095 2.578234 0.252009
2.110859 2.562525 0.244911
2.340946 2.840025 0.136822
2.456950 3.211383 0.111532
2.302395 3.248096 0.071928
2.590500 3.140437 0.002771
2.507081 3.275485 -0.037005
2.379998 3.354842 -0.075102
3.639304 4.408128 -0.205611
3.711457 4.844438 -0.276377
2.167197 2.613230 1.037683
1.991595 2.595637 0.961414
1.846287 2.604470 0.903927
1.708279 2.611868 0.851560
2.161932 2.608642 0.893899
1.994694 2.599676 0.829025
1.850383 2.606102 0.775781
1.706300 2.602491 0.723608
2.142378 2.586609 0.753018
1.984107 2.584664 0.696459
1.791783 2.721255 0.386323
1.695449 2.572211 0.251928
2.130803 2.570625 0.246309
2.375167 2.863596 0.138308
2.483867 3.226007 0.112304
2.314672 3.244272 0.072000
2.460249 2.963963 0.002622
2.504304 3.251142 -0.036816
2.382726 3.336946 -0.074864
3.651533 4.395405 -0.205539
3.726912 4.833820 -0.276422
2.178880 2.610975 1.039436
2.007758 2.600147 0.965361
1.858180 2.604276 0.905834
1.715223 2.605003 0.851033
2.173021 2.605709 0.895175
2.003252 2.594312 0.829270
1.862325 2.605947 0.777432
2.159049 2.590518 0.756081
1.716006 2.586098 0.253802
2.144429 2.570968 0.246971
2.472947 2.962937 0.143471
2.479058 3.199407 0.111642
2.339778 3.258271 0.072469
2.609721 3.124483 0.002771
2.507527 3.234750 -0.036718
2.394703 3.332056 -0.074919
3.667565 4.387248 -0.205683
3.711717 4.783690 -0.274205
2.190570 2.608672 1.041190
2.022790 2.603066 0.968745
1.870090 2.604034 0.907741
1.732269 2.613399 0.855508
2.184734 2.603475 0.896706
2.012392 2.589685 0.829760
1.875986 2.608110 0.779791
1.735713 2.612253 0.729270
2.173257 2.591359 0.758269
