x      y      z
0.612752 8.841972 1.221828
0.520958 7.230466 1.272231
0.251734 7.161913 1.187150
0.964150 8.829131 1.311998
0.007319 6.273295 1.215657
0.544024 7.240619 1.274305
0.275250 7.201526 1.193851
0.274040 7.072820 0.906980
0.016409 6.722887 0.797136
0.568693 7.270339 1.279837
0.584929 7.193950 1.266700
0.611387 7.244139 1.275861
0.333151 7.022293 1.164597
0.632407 7.228492 1.273441
0.353499 6.997591 1.160675
0.647650 7.150005 1.259958
0.377975 7.052626 1.169990
0.674176 7.197017 1.268601
0.400392 7.065223 1.172278
0.143336 7.051274 1.100015
0.695115 7.183151 1.266527
0.416947 6.978284 1.158060
0.716072 7.170204 1.264625
0.734738 7.135641 1.258921
0.464429 7.046473 1.169827
0.208928 7.073359 1.103713
1.232603 8.781686 1.309953
0.755899 7.126497 1.257711
0.477625 6.922972 1.149562
0.229115 7.026271 1.096470
1.258134 8.768071 1.308491
0.768566 7.039939 1.242845
0.497089 6.896874 1.145476
0.260711 7.306951 1.140391
1.289190 8.792555 1.312729
0.650645 8.961944 1.151392
0.790381 7.039506 1.243191
0.526084 6.999597 1.162799
0.282324 7.285384 1.137154
1.315573 8.784645 1.312145
0.818748 7.095755 1.253562
0.359877 8.604358 1.343195
1.344312 8.792302 1.313898
0.829271 6.998334 1.236795
0.316606 7.051555 1.100939
1.381194 8.851670 1.323397
0.868454 7.141440 1.262551
1.397147 8.777050 1.312875
0.899015 7.208136 1.274824
0.616068 7.039788 1.170644
1.429774 8.807875 1.318136
0.902390 7.058794 1.248895
0.634814 7.006424 1.165414
0.378930 7.000985 1.093542
0.584142 6.409812 0.824747
0.935936 7.146817 1.264971
0.648023 6.916041 1.150706
0.392507 6.861688 1.071967
1.475402 8.749186 1.310683
0.964140 7.190770 1.273268
0.679219 7.017127 1.167866
0.513438 8.517375 1.330867
1.441102 8.388750 1.257344
0.980038 7.142892 1.265317
1.473481 8.422294 1.263043
0.995241 7.092057 1.256847
1.025246 7.146493 1.267045
0.741900 6.992919 1.164924
0.606816 8.728151 1.364616
1.053452 7.186193 1.274651
0.632517 8.711466 1.362305
1.074328 7.175135 1.273268
0.789969 7.034314 1.172605
0.665058 8.786333 1.374325
1.101694 7.206856 1.279491
0.809171 7.011276 1.169173
0.690381 8.763567 1.371089
1.124254 7.206362 1.280010
1.076527 6.885444 0.960719
1.149609 7.223305 1.283640
1.204037 7.277335 1.294530
1.227996 7.283319 1.296258
0.918032 7.008800 1.170971
1.238830 7.212537 1.284331
0.947923 7.068529 1.181430
1.272153 7.272737 1.295740
0.963166 7.018673 1.173586
0.993882 7.081142 1.184535
1.011551 6.899209 1.155118
0.989337 8.767683 1.376174
1.641982 7.062959 1.071168
1.105599 6.945708 1.165087
1.652068 7.008782 1.063715
1.143526 6.910567 1.160348
1.169807 6.937184 1.165414
1.206952 7.025932 1.180940
9.014495 35.311192 6.763647
1.259555 7.071814 1.189929
0.985091 6.991578 1.101248
9.020681 35.343147 5.388283
1.311512 7.110522 1.197773
1.331138 7.094829 1.195812
1.324303 8.811309 1.389736
1.370094 7.180835 1.211011
1.422144 7.212946 1.217875
1.390877 8.539867 1.349514
1.631205 6.817270 0.966319
1.441975 7.084210 1.197610
1.400079 8.433214 1.333332
1.671725 6.893103 0.977790
1.486073 7.187958 1.215914
1.385732 8.191171 1.295730
1.502240 7.155365 1.211174
8.884039 35.283878 7.777053
8.910569 35.368389 6.401085
1.539404 7.222124 1.223268
1.562389 7.221224 1.223922
1.348459 7.547791 1.195869
9.044367 35.391154 5.035617
1.394746 7.539375 1.195869
1.516239 6.788865 0.891347
1.397041 7.424365 1.178301
1.432996 7.488946 1.189243
1.442699 7.296817 1.160116
1.470723 7.320448 1.164585
1.479541 7.249103 1.153952
1.501172 7.241627 1.153490
1.664518 6.766298 0.892872
1.680471 6.741910 0.890330
8.904587 35.380158 7.427961
8.895838 35.306338 6.031521
1.687790 6.683830 0.883340
9.021193 35.345795 6.042961
1.570171 7.132920 1.139158
1.600231 7.164712 1.145014
4.767745 13.914893 1.085068
1.606048 7.088461 1.133610
4.793453 13.851193 1.081242
1.541877 6.693593 0.814445
4.757862 13.480143 1.054537
4.717502 13.236267 1.036586
1.618022 6.739951 0.821863
4.711486 13.092236 1.026433
4.753674 13.083343 1.026875
1.961440 6.872131 0.915750
1.984166 6.871798 0.916513
1.682875 6.736336 0.823276
8.887789 35.307226 7.055373
8.932696 35.373465 5.690395
2.005517 6.866631 0.916640
9.045587 35.363121 5.693169
2.025731 6.857592 0.916258
1.726642 6.735502 0.824453
13.667864 36.226156 2.856240
2.047612 6.854196 0.916640
2.074654 6.867821 0.919309
13.785061 35.868851 2.834684
2.098322 6.869962 0.920453
13.889476 35.858449 4.253565
13.693815 35.307562 2.793632
4.809222 13.882351 0.942865
2.118804 6.861596 0.920198
14.112319 36.104495 4.287867
13.739555 35.105645 2.780979
4.816856 13.767684 0.936076
2.143096 6.865479 0.921597
14.241618 36.108187 4.293474
13.919724 35.246987 2.795545
14.435389 36.273032 4.318321
14.035547 35.223574 2.797090
14.181069 35.318204 4.209807
14.148381 35.192376 2.798046
14.230395 35.128975 4.192437
14.258907 35.155275 2.798561
1.975561 6.907725 0.851888
14.341111 35.092515 4.193316
14.013949 34.249270 2.729848
4.752642 12.943679 0.884905
2.000332 6.914033 0.853419
14.467268 35.093379 4.198703
4.822506 13.010446 0.890476
2.019582 6.901192 0.852594
14.564942 35.024966 4.195845
4.842465 12.942314 0.886826
2.038209 6.886394 0.851535
14.487022 34.538330 4.142853
13.771275 36.480237 3.924329
2.059611 6.881059 0.851652
14.844637 35.088724 4.214315
13.882421 36.435958 3.924128
2.082150 6.879461 0.852241
14.894877 34.908628 4.198154
13.959143 36.302184 3.914315
14.982204 34.816983 5.599156
2.109058 6.892032 0.854596
15.070266 35.021628 4.217284
14.059652 36.231361 3.911311
15.087769 34.768130 5.598718
2.132247 6.892170 0.855420
15.445907 35.593422 4.291825
14.165301 36.174158 3.909809
14.055809 35.879790 2.473019
2.155160 6.891282 0.856127
15.286465 34.932144 4.217723
14.284990 36.152739 3.912212
14.165087 35.834644 2.472891
2.175993 6.883691 0.856009
15.440109 34.990563 4.230477
14.125011 35.429431 3.838612
15.559508 34.970271 4.233775
14.867515 36.946892 2.555893
16.196392 36.103048 5.845247
15.501548 34.554187 4.189138
14.323055 35.295076 3.833505
4.265501 13.189125 1.133553
16.184771 35.782781 5.801406
15.621413 34.537254 4.192876
14.393952 35.159808 3.823592
4.334119 13.262187 1.140969
15.100675 36.565755 3.981506
4.379474 13.263024 1.142192
16.040616 34.892294 4.247848
14.294533 34.314927 3.741180
16.770905 36.187895 5.891864
16.224488 35.008849 4.268077
14.395502 34.260821 3.740078
16.707662 35.763419 5.831072
14.895856 35.180053 5.266545
16.394501 35.093087 4.284459
14.498216 34.210996 3.739477
16.812669 35.702150 5.829464
15.006440 35.140566 5.267501
16.512251 35.064206 4.287097
14.546013 34.032781 3.724858
13.871553 36.045520 3.524441
16.307018 34.354544 5.617569
15.120448 35.108920 5.269686
13.781859 35.525832 4.882771
16.376807 34.501566 4.224430
14.869335 34.496012 3.780533
14.017405 36.093766 3.533347
4.630797 13.333629 1.154255
16.572446 34.638995 5.672369
15.223354 35.051460 5.268047
13.814130 35.287571 4.855826
16.580812 34.656483 4.249607
15.071484 34.671968 3.804866
14.208013 36.254577 3.553339
4.707308 13.420933 1.163057
6.176020 12.894391 1.054684
16.591412 34.407103 5.642704
15.342741 35.031814 5.272144
13.894267 35.173992 4.846039
16.830388 34.902687 4.286108
15.063543 34.364942 3.776227
13.918174 35.196754 3.453830
4.743469 13.392336 1.161834
16.832673 34.635420 5.688591
15.398519 34.867679 5.254528
14.213276 35.661003 4.919122
16.787935 34.543366 4.248288
15.227630 34.451434 3.790847
13.926447 34.904149 3.429294
17.088543 34.889232 5.738861
15.536046 34.889051 5.264906
14.235651 35.400969 4.889253
16.951981 34.610419 4.262910
15.536984 34.861681 3.841216
14.020822 34.829849 3.426204
15.507083 34.538476 5.219158
14.201004 35.004178 4.840447
17.161909 34.768588 4.288856
15.672005 34.876470 3.848125
14.092764 34.700863 3.417752
15.860947 35.038541 5.302052
14.220790 34.746557 4.810833
15.953024 35.212497 3.890583
14.221056 34.710912 3.423023
16.438474 36.019805 5.458143
14.453370 35.008068 4.853157
16.187473 35.440329 3.921224
14.333566 34.681843 3.424477
16.533999 35.936804 5.453227
14.387963 34.548766 4.795581
16.172530 35.122084 3.891484
14.162086 33.971295 3.358592
17.009301 36.673148 5.572855
14.568028 34.680958 4.820111
16.277274 35.065983 3.890783
14.267014 33.929522 3.358774
13.680232 36.138334 3.159896
16.230571 34.714730 5.282796
14.820623 34.981329 4.868155
16.601948 35.479994 3.942353
14.361320 33.862672 3.356502
13.733412 35.945367 3.146692
16.485232 34.979305 5.330730
14.936838 34.956674 4.871078
13.893838 36.085810 4.584887
16.490005 34.960948 3.890282
14.469450 33.828527 3.357502
13.828567 35.864007 3.143269
15.426506 35.849923 6.465262
16.684283 35.121841 5.360227
14.998872 34.805929 4.856462
13.848393 35.641292 4.533786
16.480558 34.664879 3.862945
15.133278 35.082442 3.486546
13.612891 34.984534 3.069835
15.543488 35.818715 6.468204
16.776985 35.039217 5.355448
15.166465 34.899845 4.876035
13.903301 35.459962 4.516124
16.606609 34.655429 3.867551
15.133581 34.789286 3.462009
13.721980 34.947245 3.070242
15.654493 35.773571 6.468694
16.726391 34.660153 5.305329
15.836008 36.136840 5.055626
14.071573 35.567655 4.535317
16.760019 34.701976 3.878466
15.231441 34.722628 3.460010
13.866944 35.000418 3.078637
15.772534 35.744330 6.472126
16.997731 34.948087 5.357359
15.283302 34.586571 4.845277
14.062080 35.227343 4.497402
16.788455 34.490258 3.860542
15.352399 34.708523 3.463281
14.058977 35.169644 3.097301
15.863674 35.654308 6.464608
17.246138 35.183978 5.401606
15.393780 34.549487 4.846675
14.313290 35.539597 4.542852
16.885866 34.421615 3.858639
15.663658 35.120559 3.509174
14.179112 35.156849 3.099991
15.359881 34.190851 4.802953
14.514960 35.723679 4.572053
15.480942 34.426570 3.444561
14.258358 35.043022 3.093797
15.458975 34.130915 4.801174
14.803390 36.115434 4.627982
6.310834 13.919723 1.394673
14.359367 34.983439 3.092411
15.938130 34.903493 4.916707
14.336984 34.674038 4.448891
6.336949 13.864067 1.391038
14.482642 34.977895 3.095834
15.968818 34.688649 4.893321
14.456291 34.661052 4.452895
49.255380 97.366131 10.981611
6.308187 13.689897 1.375498
14.603712 34.966406 3.098768
16.038842 34.561216 4.882263
14.574884 34.645829 4.456663
49.626611 97.357274 10.997733
6.345962 13.661447 1.374589
14.664488 34.811218 3.088988
16.229278 34.692432 4.907810
49.855516 97.069153 10.982412
6.381088 13.627484 1.373135
14.873720 35.007316 3.110423
16.335636 34.642478 4.907810
14.953621 34.944671 4.506822
50.227168 97.058895 10.998634
16.354292 34.649115 3.496360
16.462280 34.635200 4.913910
15.043054 34.857597 4.501524
16.736043 35.177914 3.554884
16.400470 34.233873 4.864088
15.132885 34.772128 4.496461
16.798675 35.032115 3.545342
15.716308 35.863053 6.107100
16.484720 34.140523 4.857987
15.135736 34.489111 4.465847
16.969775 35.112220 3.558701
15.819072 35.798401 6.104326
16.739124 34.397490 4.901836
16.179399 36.562027 4.740665
16.853703 34.600702 3.512082
15.897459 35.679304 6.092306
15.267359 34.216940 4.442651
16.912383 34.452286 3.502267
16.038428 35.700661 6.104326
15.461488 34.368269 4.468437
6.249553 13.873573 1.244316
15.646433 34.496120 4.491280
17.464692 35.032343 3.572060
6.225733 13.708232 1.231194
7.634276 12.862363 1.103387
16.464560 36.005808 4.694391
17.550630 34.935884 3.567698
15.920926 34.584012 5.938199
16.632733 36.080481 4.710757
16.028616 34.538590 5.938816
16.178791 34.814437 4.551919
16.112734 34.442717 5.930802
16.779663 35.819475 4.690034
16.257939 34.477124 5.945288
16.534998 35.017126 4.591599
6.182651 13.076805 1.182862
16.302982 34.299474 5.923251
16.633389 34.947402 4.589126
16.502052 34.445334 5.957154
17.105191 35.656359 4.689092
16.680257 34.544911 5.983198
17.327323 35.837053 4.719824
16.981587 34.895150 6.052855
17.435306 35.229272 4.660715
9.121509 14.249615 1.248097
8.998160 13.684137 1.208149
9.032609 13.464914 1.196083
8.981005 13.125241 1.173203
9.080629 13.183865 1.180928
9.509712 12.773503 1.174748
9.061294 13.060829 1.020167
26.339896 34.300629 4.783707
9.837625 12.799295 1.190860
26.502744 34.294369 4.794152
9.960440 12.877125 1.200939
10.215755 14.252966 1.125392
26.472982 34.039507 4.769855
9.977234 12.817389 1.198217
10.278117 14.247456 1.127442
10.109375 12.905266 1.209326
27.546023 34.974279 4.924434
10.359457 14.176065 1.126801
7.924334 9.998010 1.884555
26.606728 33.569301 4.738081
26.866729 33.866970 3.188992
7.943867 9.959730 1.881924
26.666829 33.433897 4.730495
26.936283 33.741516 3.184945
7.993581 9.959228 1.886454
26.763054 33.344174 4.729396
27.062159 33.686707 3.187594
8.031557 9.943892 1.888208
26.851487 33.244898 4.726977
27.206760 33.654711 3.192449
8.028905 9.864726 3.887656
8.030288 9.873112 3.357735
8.029545 9.878184 2.854118
8.025607 9.873339 2.361419
8.080745 9.942236 1.892592
8.084439 9.946781 1.417818
8.085850 9.939653 0.945213
8.060343 9.841527 3.888240
8.053804 9.840198 3.354929
8.059813 9.853503 2.854118
8.056482 9.849431 2.361601
8.104320 9.908975 1.890985
8.114918 9.921931 1.417818
26.857903 35.377646 4.470270
8.134627 9.937179 0.947347
8.089282 9.815276 3.887656
8.078423 9.808725 3.352633
8.091246 9.830237 2.854556
8.102908 9.844405 2.366346
8.135940 9.885591 1.891277
8.139635 9.890082 1.416829
26.338093 34.472833 4.366128
8.153028 9.897549 0.945949
8.109590 9.778634 3.882979
8.110946 9.786873 3.353653
8.128835 9.814385 2.857181
8.133071 9.819500 2.366346
8.188945 9.888012 1.896538
27.332796 35.571275 6.184111
8.168037 9.862766 1.416499
26.466170 34.421049 4.369833
8.183991 9.873258 0.946023
8.139552 9.753708 3.882979
8.131644 9.750804 3.349827
8.160157 9.790899 2.857618
8.224849 9.868519 2.384229
8.234443 9.881082 1.900045
27.181827 35.151063 6.125525
8.198257 9.837661 1.416499
27.020406 34.919638 4.443634
8.218715 9.853464 0.946538
10.398279 14.492994 0.975404
8.284424 9.879271 1.904575
27.242086 35.006525 6.114873
28.582898 34.085436 4.920476
26.676263 34.257222 4.369733
28.150529 33.540099 3.230190
10.377807 14.371169 0.969343
8.328729 9.870442 1.907790
27.354854 34.929802 6.116103
26.810697 34.212811 4.374540
28.465646 33.705010 3.254468
8.547218 10.066551 1.950754
27.466180 34.851161 6.117058
26.575439 33.699140 4.319265
28.928637 34.040805 3.295446
27.576050 34.770611 6.117741
26.632314 33.558994 4.311755
29.010250 33.925365 3.292871
28.073135 35.175188 6.204049
26.768674 33.519114 4.317162
29.133710 33.858884 3.295078
10.157600 12.715470 1.044440
28.386243 35.344548 6.249251
26.873254 33.439158 4.317462
28.041234 34.696396 6.149834
26.994487 33.379764 4.320466
10.281246 12.709543 1.049115
8.021961 9.877877 3.739365
8.015304 9.869680 3.216763
8.046786 9.903852 2.727518
8.038983 9.891426 2.236948
8.071177 9.924312 1.763436
8.099638 9.952919 1.291454
8.046157 9.845790 3.736546
8.051067 9.851798 3.218970
8.083942 9.887446 2.729817
8.070538 9.868241 2.237294
8.100959 9.898737 1.763299
8.114375 9.908779 1.288950
26.098053 34.357617 3.937199
8.079982 9.825505 3.738237
8.081254 9.827051 3.218970
8.114859 9.863354 2.730026
8.106409 9.850279 2.238850
8.126881 9.868484 1.762343
8.144738 9.883837 1.288950
26.168863 34.232288 3.932019
8.114370 9.805844 3.740211
8.113219 9.804453 3.219706
8.149447 9.843684 2.731489
8.146014 9.836741 2.241443
8.169128 9.857997 1.764938
26.938748 35.042790 5.663796
8.183913 9.869527 1.290352
26.359992 34.263924 3.944924
8.160378 9.800073 3.747541
8.158149 9.797396 3.225592
8.175226 9.813376 2.730026
8.178046 9.813974 2.241961
8.208850 9.844301 1.766986
26.931421 34.811704 5.639774
8.217342 9.848192 1.290853
26.502785 34.231714 3.950558
27.083795 34.787615 5.649307
26.551371 34.077973 3.942197
27.980233 33.315494 2.792090
27.290718 34.832406 5.670151
26.803270 34.184437 3.964008
28.957066 34.264582 2.879062
27.447813 34.812386 5.680573
26.946266 34.150518 3.969642
28.696141 33.745286 2.842813
7.841919 9.894117 2.091404
28.719374 33.594260 6.092750
27.973717 35.256387 5.767001
26.727653 33.660576 3.922205
28.799534 33.657091 2.842813
7.933753 9.947139 2.107747
28.956031 33.661447 6.121019
28.061327 35.144817 5.762806
27.018537 33.813377 3.949649
26.369190 35.565031 3.620555
28.795871 33.444549 2.832310
27.956544 34.794120 5.719338
27.217627 33.849064 3.963553
26.272537 35.208382 3.592436
27.873571 34.473709 5.680700
28.364964 35.055170 4.114953
26.419932 35.180211 3.597815
8.015716 9.890144 3.604540
8.038954 9.903614 3.096049
8.059062 9.920952 2.602340
8.068524 9.927289 2.119187
8.069179 9.917479 1.638309
8.073703 9.915614 1.166847
26.355267 34.870791 3.574423
8.032034 9.848356 3.598274
8.071759 9.881914 3.096993
8.091322 9.898456 2.602939
8.087701 9.888742 2.116246
8.100195 9.893445 1.638436
8.095249 9.880013 1.165575
26.684774 35.082490 3.604498
8.051834 9.811024 3.593642
8.094634 9.848095 3.094162
8.097374 9.844072 2.595158
8.122389 9.869214 2.117390
8.134294 9.873140 1.639199
8.128057 9.858204 1.165938
26.769864 34.971173 3.601483
8.080670 9.784792 3.593098
8.120474 9.817973 3.092511
8.149406 9.845603 2.602141
8.153258 9.845008 2.117553
8.165813 9.849665 1.639453
8.163350 9.839353 1.166665
26.891020 34.907041 3.603357
8.119876 9.771054 3.597184
8.143718 9.784798 3.089917
8.176438 9.816790 2.601143
8.192897 9.831317 2.120004
8.193451 9.821519 1.638945
8.186478 9.805852 1.165665
27.031572 34.867698 3.607840
28.937055 34.471403 5.767128
27.297364 35.023611 5.265103
27.314983 35.010917 3.631313
28.573464 33.988854 2.428135
27.243505 34.734197 5.234135
29.089985 34.412878 4.111954
27.256085 34.715290 3.609307
7.787674 9.877067 1.961780
28.797926 33.881305 5.697858
27.194895 34.454023 5.204464
29.199942 34.328778 4.112590
27.351340 34.617429 3.607840
7.881810 9.933625 1.977807
28.881105 33.768671 5.693791
27.109000 34.129375 5.167963
27.462999 34.540375 3.608574
7.938759 9.942598 1.984434
26.921547 33.680692 5.112505
27.675316 34.589035 3.622511
7.990267 9.944384 1.989673
27.354004 34.007272 5.174792
27.737548 34.449624 3.616805
28.078481 30.096035 2.641521
8.036891 9.939799 1.993680
27.882008 34.412375 3.621859
28.355778 30.206927 2.658877
7.986370 9.866822 3.463624
8.020955 9.886948 2.960337
8.033752 9.888956 2.468981
8.073583 9.922760 1.995221
8.098252 9.942440 1.520446
8.098084 9.932318 1.047974
28.522323 30.198146 2.665794
8.022696 9.849754 3.466256
8.074656 9.890964 2.968943
8.069024 9.870343 2.470503
8.096476 9.888769 1.993372
8.126829 9.915245 1.520093
8.129151 9.908197 1.048055
28.654022 30.151732 2.669444
8.047373 9.818380 3.463887
8.083942 9.840557 2.961243
8.104257 9.851606 2.472025
8.129918 9.867696 1.994143
8.150259 9.881838 1.518798
8.160145 9.883979 1.048137
28.711217 30.026894 2.666178
8.079298 9.795876 3.464676
8.119680 9.822465 2.963281
8.150720 9.846359 2.476971
8.163306 9.846511 1.994913
8.174830 9.849909 1.517738
8.193615 9.862731 1.048544
8.122868 9.787376 3.470468
8.159743 9.809490 2.966905
8.192200 9.834885 2.480396
8.196641 9.825214 1.995684
8.172547 9.785911 1.511733
8.217442 9.829900 1.047729
8.245169 9.821966 2.000153
28.601211 34.034672 5.271225
29.065675 34.553074 3.692359
11.958918 13.206353 0.974257
8.365164 9.903052 2.021882
28.692027 33.930840 5.268753
29.027950 34.294092 3.674184
11.975841 13.143768 0.972346
28.936279 34.007529 5.294421
28.787929 33.799699 3.630661
11.999240 13.088565 0.970981
28.891489 33.711218 3.630661
11.990594 12.998846 0.967050
29.166614 33.821685 3.652178
12.024304 12.955412 0.966558
29.251951 33.710966 3.649896
11.956566 12.724937 0.954819
11.893339 12.580083 0.946683
79.711828 64.725778 3.817186
13.266533 10.713813 4.499089
13.257186 10.632007 5.194259
13.283504 10.660353 4.493732
67.640113 54.273221 6.397406
12.646428 11.758343 0.944281
13.256089 10.564464 5.181105
13.357725 10.652707 4.507763
13.954213 11.136374 2.637295
67.831255 54.085343 6.399760
12.718376 11.752694 0.946956
13.259949 10.501183 5.169998
13.368367 10.594260 4.500365
13.989863 11.094741 2.637588
12.778642 11.735908 0.948758
13.192666 10.389284 4.430465
14.051030 11.073199 2.642702
12.872849 11.749827 0.953072
13.115587 10.263550 4.393985
14.092724 11.036138 2.644164
13.594127 11.470375 2.451985
13.108515 11.891418 0.967814
13.399835 10.412732 5.186951
13.156174 10.230386 4.397046
14.085138 10.960650 2.636418
13.544237 11.357326 2.436690
13.067067 11.780941 0.962081
13.437017 10.375663 5.188997
13.443046 10.387437 4.482252
14.111656 10.911941 2.635103
13.597282 11.330939 2.439968
13.474855 10.339048 5.191336
13.418866 10.303159 4.463629
13.090775 10.058513 2.438698
13.592306 11.256314 2.432867
12.678939 9.742073 1.768645
13.481415 10.278525 5.181690
13.572639 10.355195 4.504191
12.737078 9.724743 2.367238
13.615302 11.205117 2.430818
12.689018 9.688049 1.765896
13.477821 10.210551 5.168244
13.669839 10.363158 4.525876
12.743209 9.667683 2.362854
13.583667 11.109358 2.419074
12.664835 9.608224 1.758420
13.653487 10.277857 5.223489
13.671448 10.298482 4.515926
13.657669 11.110819 3.763218
12.770440 9.626756 2.362416
13.608462 11.060135 2.417435
12.660918 9.544195 1.753802
13.699109 10.253592 4.514651
13.700057 11.075629 3.765518
13.393358 10.030944 3.105555
12.822084 9.604137 2.366507
13.640017 11.016466 2.417025
12.711618 9.521395 1.756771
67.306874 54.310467 5.550364
14.085849 10.475791 4.631490
12.999898 10.448662 4.219686
13.694329 11.001696 3.754648
13.436691 9.999198 3.108475
12.614997 9.388744 2.322959
13.639758 10.947284 2.411017
12.867548 9.576706 1.774252
67.626555 54.226703 5.562980
12.888189 9.517203 4.896984
12.933159 10.329869 4.864022
13.925069 10.290017 4.568223
12.990989 10.376058 4.206441
13.686749 10.926684 3.743361
13.462560 9.954421 3.107380
12.625448 9.336469 2.319598
13.394471 10.683016 2.361854
13.230119 9.783621 1.820098
67.901087 54.105419 5.571882
12.914243 9.475354 4.895815
13.106071 10.402277 4.917027
14.007233 10.284443 4.584805
13.063765 10.368699 4.219686
13.381571 9.831180 3.722867
13.686498 10.857901 3.734164
13.487491 9.908997 3.106103
12.755277 9.372082 2.338157
13.345665 10.577264 2.347515
12.924465 9.496395 1.774032
12.931660 9.427239 4.891431
12.996299 10.250318 4.864022
14.139487 10.314933 4.617714
13.097798 10.330372 4.220422
13.712066 10.809806 3.732074
13.552769 9.893078 3.114131
12.756006 9.312489 2.333043
13.484672 10.620242 2.366224
13.558926 11.507033 2.278762
12.700665 9.272088 1.739400
12.880748 9.329739 4.861323
13.082810 10.253602 4.884604
13.464900 9.759660 4.387607
13.051600 10.229142 4.195404
13.735927 10.760450 3.729566
13.657077 9.905137 3.131102
13.007134 9.434788 2.373668
13.440739 10.518988 2.352841
13.516068 11.399513 2.265671
12.732270 9.235415 1.739840
75.236963 63.363117 5.378862
12.983051 9.343245 4.889092
13.083928 10.189835 4.873326
13.462609 9.695137 4.377148
13.056151 10.168203 4.186819
13.854530 10.784936 3.752767
13.664269 9.846520 3.125810
13.041636 9.398887 2.374691
13.426810 10.441823 2.344784
13.338887 11.180226 2.230210
12.875046 9.278829 1.755452
12.927247 10.046804 1.647737
12.924526 9.241073 4.856354
13.136373 10.166088 4.881220
13.974326 9.998688 4.533529
13.050485 10.099620 4.175046
13.966451 10.803410 3.774087
13.751973 9.845764 3.138948
12.875761 9.219457 2.339326
13.545006 10.467213 2.359806
13.366265 11.133537 2.229066
12.914767 9.247386 1.756991
12.960372 10.008921 1.648038
12.959834 9.206362 4.858985
13.226064 10.170773 4.902930
14.005724 9.956329 4.533784
13.267386 10.202549 4.234402
14.115830 10.849903 3.805440
14.044105 9.989886 3.198618
13.348145 9.495887 2.419847
13.623412 10.461204 2.367863
13.365213 11.063383 2.223220
12.878285 9.161628 1.748195
12.998121 9.974564 1.648939
12.845815 9.066197 4.805786
12.632080 9.652476 4.671739
13.614455 9.615444 4.397556
13.275514 10.144140 4.227044
14.092318 10.763215 3.790182
14.867185 10.506820 3.378722
13.269771 9.378949 2.400411
13.523920 10.319005 2.345057
13.376877 11.004053 2.219534
12.889286 9.110026 1.745887
12.955080 9.878532 1.639626
12.857909 9.015763 4.799940
12.655522 9.609034 4.669483
13.551284 9.508651 4.367709
13.359850 10.143814 4.243968
15.034250 10.555875 4.118628
14.090218 10.693326 3.780776
14.433444 10.134036 3.273068
13.208337 10.021143 2.909710
13.206188 9.273386 2.383751
12.779538 9.689139 2.210815
13.399056 10.953545 2.217627
12.914734 9.068727 1.745557
12.838613 9.727578 1.621101
13.225283 9.212966 4.926507
12.680347 9.566695 4.667792
13.688268 9.542233 4.402403
13.295717 10.030962 4.213799
13.008977 9.074429 3.556162
14.067523 10.608243 3.765935
13.639465 11.098235 3.580113
14.442694 10.074519 3.268141
13.261827 9.997769 2.914723
13.200500 9.209053 2.377614
12.823446 9.660616 2.213274
13.427978 10.908634 2.216865
12.907443 9.004608 1.740829
12.862037 9.683356 1.620300
13.255845 9.173980 4.927384
12.716546 9.532927 4.670329
13.082881 10.602995 4.768094
14.258007 9.874541 4.575877
13.302382 9.972098 4.206196
13.086481 9.068934 3.569726
14.092959 10.559758 3.764054
13.652876 11.039702 3.574726
14.463029 10.022882 3.265769
13.265635 9.936958 2.908846
13.230317 9.169638 2.377906
13.962507 10.451740 2.404325
13.404271 10.821279 2.207459
12.915402 8.951378 1.738191
12.886108 9.639679 1.619599
13.346970 9.176614 4.950769
12.707261 9.465212 4.656233
13.097365 10.548323 4.761556
13.654954 9.395036 4.373066
13.632242 10.154199 4.300627
13.119869 9.032616 3.571257
14.115876 10.509463 3.761546
14.502618 9.984596 3.267776
13.360848 9.944435 2.923020
13.297497 9.155935 2.384920
14.088301 10.478617 2.420440
13.406459 10.755277 2.202375
12.857665 8.853090 1.726757
12.920412 9.603660 1.620200
100.434409 86.567886 5.993214
49.394946 33.956062 2.228302
13.426391 9.170682 4.969768
12.763232 9.446159 4.666100
13.183000 10.550778 4.780898
13.665354 9.340549 4.367198
13.563586 10.038507 4.269231
13.137854 8.985712 3.568632
14.130757 10.453312 3.756948
13.812245 11.029094 3.598667
14.693057 10.049403 3.303724
13.385751 9.899298 2.921810
13.340222 9.125149 2.387551
13.371502 9.881902 2.292070
13.462660 10.732645 2.206188
12.925784 8.841659 1.732254
13.198727 9.747808 1.651342
49.649081 33.906930 2.235063
13.942724 9.460754 5.150121
12.794471 9.408663 4.666946
13.301909 10.579157 4.812228
13.750740 9.337145 4.385311
13.594320 9.996847 4.269231
13.171009 8.949202 3.570163
14.213190 10.446977 3.770325
13.760813 10.919058 3.576522
14.265149 9.692629 3.200808
13.423995 9.864017 2.923538
13.433612 9.128660 2.399242
13.532708 9.936990 2.314467
13.521181 10.711618 2.210383
13.696019 9.306975 1.831642
13.243010 9.717864 1.653145
12.820953 9.367668 4.666100
13.322224 10.528753 4.807869
13.992544 9.438745 4.453170
13.591267 9.930500 4.258684
13.208108 8.915303 3.572789
14.229380 10.391787 3.766145
14.439062 9.746181 3.233106
13.186114 9.627063 2.865285
13.400061 9.045890 2.388282
13.343054 9.734862 2.276912
13.537613 10.657200 2.207714
12.980616 8.762739 1.732364
13.165030 9.598642 1.639726
12.868266 9.341817 4.672867
13.186473 10.355902 4.747390
14.166824 9.493196 4.499344
13.742486 9.976464 4.296457
13.245123 8.881260 3.575414
13.915483 10.903315 3.599265
14.363551 9.631201 3.209566
12.933352 9.381830 2.804094
13.218237 8.864236 2.351017
13.252547 9.606667 2.256428
13.471027 10.538002 2.191572
13.028076 8.736713 1.735112
13.337036 9.661523 1.657451
15.216423 10.121746 5.585947
12.896865 9.302294 4.672867
13.294794 10.375185 4.774905
14.075953 9.369857 4.461333
13.767525 9.930285 4.294740
14.045436 9.355558 3.783686
14.050928 10.940035 3.625600
14.756355 9.829095 3.290586
12.967668 9.346138 2.805304
13.235490 8.817059 2.349263
13.048038 9.397490 2.216688
12.937884 10.057108 2.099806
14.696804 9.790540 1.953348
13.373075 9.625210 1.658252
13.090132 10.167763 1.512539
15.159638 10.017022 5.553794
13.160080 9.430902 4.757731
13.255851 10.279512 4.749569
13.917517 9.202899 4.402148
13.723854 9.834918 4.271684
13.199316 10.219818 4.051800
14.122899 9.344730 3.796813
14.089076 10.900474 3.626797
14.670005 9.706735 3.264674
13.008292 9.314912 2.807897
13.255878 8.772044 2.348094
13.249210 9.480782 2.245912
12.686869 9.799692 2.054178
13.379007 8.853525 1.774582
13.135462 9.393149 1.625207
13.141762 10.143376 1.514902
14.838523 9.739571 5.425180
13.181136 9.384918 4.754911
13.280466 10.233510 4.747117
13.675759 8.982857 4.316942
13.752382 9.791643 4.271193
13.185935 10.144905 4.038120
14.971807 9.840520 4.016899
12.947178 9.213915 3.396595
14.011361 10.771793 3.598268
14.394893 9.461332 3.196976
12.986248 9.238987 2.797007
14.597113 9.595340 2.580449
13.469584 9.576129 2.278278
13.235400 10.158713 2.137936
13.289437 10.988791 2.044649
13.413582 8.817350 1.775571
13.154485 9.345890 1.624005
13.189414 10.115737 1.516810
14.869135 9.694523 5.425472
13.208301 9.343326 4.754348
12.783147 9.787934 4.558594
13.702443 8.940329 4.316687
13.825096 9.779638 4.284438
13.346696 10.203559 4.077747
14.506793 9.471274 3.884322
13.030481 9.213105 3.411017
14.042007 10.726971 3.597669
14.291304 9.330586 3.167597
12.993619 9.184321 2.792512
14.501406 9.468841 2.558382
13.311179 9.402165 2.246595
12.726254 9.706022 2.050873
13.328458 10.952380 2.045473
13.373158 8.732141 1.766666
13.174154 9.299177 1.622904
13.240980 10.090919 1.519173
14.611444 9.462755 5.320827
13.250247 9.312139 4.759140
12.859826 9.784209 4.575213
13.792286 8.938741 4.336330
13.733680 9.651891 4.246911
13.267281 10.078503 4.044017
14.556248 9.439997 3.889791
13.104297 9.205125 3.422932
14.018654 10.641184 3.583305
14.299240 9.273322 3.163035
13.008032 9.134792 2.789574
13.221498 10.030629 2.749207
13.870557 8.996345 2.442205
13.234547 9.287307 2.228842
12.730674 9.647762 2.046806
13.384302 10.929653 2.048887
13.385709 8.681876 1.764797
13.446194 9.429528 1.652844
13.275052 10.052654 1.519536
14.682229 9.444787 5.336027
13.454179 9.393928 4.822013
12.835289 9.703512 4.555870
13.817206 8.894814 4.335565
13.747330 9.598611 4.242006
13.255479 10.005551 4.031044
14.700806 9.469802 3.920638
13.096389 9.139693 3.413526
14.058276 10.603436 3.585101
14.292907 9.207046 3.155371
13.023880 9.086387 2.786981
13.301052 10.026839 2.759340
13.924704 8.970893 2.446882
13.262978 9.246661 2.228842
12.722180 9.580020 2.040705
13.423169 10.892919 2.049712
13.381367 8.620851 1.760729
13.200759 9.197123 1.619199
13.289120 9.999305 1.517628
14.609596 9.334819 5.299196
13.482147 9.352060 4.821731
12.875000 9.671601 4.559412
13.185013 10.699738 4.633169
14.039938 8.977394 4.396791
13.857167 9.612197 4.266779
13.279116 9.959589 4.028921
14.713351 9.414138 3.916263
13.167765 9.129560 3.424813
14.056239 10.534398 3.576322
14.331854 9.170042 3.157743
13.131027 9.101374 2.803921
13.293851 9.957595 2.751495
13.911331 8.902003 2.439721
13.899615 9.627275 2.330854
13.720423 10.265903 2.195766
13.407825 10.812414 2.042294
13.427008 8.592080 1.763258
13.236276 9.161676 1.620100
13.312556 9.953121 1.516810
14.624440 9.281242 5.294227
13.330653 9.186526 4.757449
12.904611 9.632055 4.559412
13.335678 10.754317 4.674497
14.420018 9.158217 4.506998
13.922514 9.594394 4.277816
13.315843 9.923449 4.030808
14.745458 9.371047 3.917138
13.149807 9.057500 3.412899
13.510050 10.060479 3.429487
14.352451 9.121282 3.156101
14.520964 10.807363 2.998600
13.925218 8.850791 2.437383
13.706293 9.431283 2.293573
12.799031 9.515389 2.043628
13.454107 10.781785 2.044295
13.513701 8.589233 1.771173
13.823458 9.505507 1.688392
13.367811 9.930641 1.519627
49.378803 33.944486 3.845496
14.595406 9.200125 5.273474
13.297024 9.103309 4.735458
12.992063 9.635406 4.579844
13.379902 10.722402 4.678445
14.254229 8.991673 4.446537
14.054277 9.621734 4.309211
13.331387 9.871561 4.026326
15.288201 9.650252 4.053434
13.145250 8.995024 3.404538
13.515646 10.000333 3.423102
14.367896 9.069335 3.153364
13.354089 9.135191 2.839530
13.404672 9.912793 2.761791
13.967364 8.817533 2.440013
13.632936 9.319308 2.276502
12.826568 9.474898 2.043374
13.474693 10.730560 2.042411
13.682028 8.637403 1.789754
14.143392 9.661731 1.723841
13.520002 9.979477 1.533440
15.095954 9.520797 1.316589
14.553853 9.111661 5.248335
13.328855 9.065170 4.736867
12.861223 9.477348 4.523451
13.414999 10.683106 4.679234
14.276832 8.944819 4.445006
14.002765 9.523506 4.284438
13.234021 9.736744 3.987879
15.211087 9.536441 4.025212
13.170359 8.953003 3.403911
13.999437 10.291981 3.537618
14.375659 9.012677 3.148984
13.413555 9.855850 2.757379
14.072297 8.823514 2.453604
13.757347 9.342553 2.292480
14.043020 10.307042 2.232117
13.513781 10.694099 2.043353
13.814567 8.661914 1.803606
14.331863 9.726126 1.743167
13.555374 9.941485 1.533985
15.133544 9.479733 1.317325
13.986450 8.696815 5.034076
13.362965 9.028532 4.739123
12.884805 9.433868 4.521544
13.479484 10.667043 4.690290
14.496308 9.020513 4.504702
14.011835 9.466933 4.278306
13.275598 9.704698 3.991418
15.243586 9.491792 4.026087
13.224509 8.930616 3.410808
13.502372 9.862883 3.404349
13.577791 8.454545 2.968516
15.366639 10.374089 3.253869
13.637354 9.956008 2.797092
14.647653 9.121785 2.549030
14.759100 9.956813 2.454307
14.074575 10.263909 2.232117
13.591801 10.688192 2.050183
13.865544 8.634728 1.806795
13.883959 9.360078 1.685188
13.592249 9.904543 1.534713
15.157476 9.430099 1.316884
14.783911 9.922653 5.232235
12.919134 9.398256 4.523451
13.492430 10.610134 4.683446
15.024002 9.285058 4.659808
14.027129 9.414716 4.274137
13.288011 9.651360 3.986228
15.161429 9.376208 3.996772
13.268087 8.900897 3.414989
12.956814 9.403553 3.259509
13.240745 8.188410 2.889321
13.155141 9.542233 2.692170
14.959103 9.252168 2.598277
14.055530 9.419552 2.332493
14.298769 10.360355 2.262620
13.639394 10.658060 2.052420
14.228407 8.800234 1.850552
13.901863 9.310242 1.683886
13.620958 9.861627 1.534531
15.177851 9.378309 1.316148
14.266993 8.750329 5.115629
14.940411 9.961343 5.276781
12.938548 9.351812 4.520181
13.533279 10.575224 4.686342
15.780893 9.686048 4.885323
13.892206 9.262464 4.224346
13.254517 9.565054 3.967359
13.213764 10.301795 3.895932
15.192617 9.331181 3.997428
13.506912 9.001148 3.469334
12.933146 9.325931 3.246341
13.227265 8.124078 2.880928
13.004272 9.372046 2.655399
13.568755 8.334797 2.352332
14.086837 9.378032 2.332903
14.393276 10.361640 2.272534
13.663401 10.609465 2.051125
14.031752 8.619199 1.821527
14.707399 9.784494 1.777814
13.654383 9.822119 1.534894
13.257054 10.283561 1.372032
14.311740 8.717463 5.122059
15.044493 9.964200 5.302720
13.005474 9.339574 4.533531
15.322596 9.340156 4.734554
14.213145 9.413586 4.313135
13.662095 9.795578 4.080341
13.291506 10.296997 3.909520
15.185353 9.262677 3.988021
13.598882 9.002312 3.485847
12.942579 9.272512 3.241553
13.993298 10.825445 3.428380
13.227785 8.068611 2.875636
13.113178 9.389541 2.671742
14.183002 10.955200 2.795190
13.573993 8.280764 2.348825
15.532631 10.271909 2.567108
14.459689 10.342246 2.277999
13.619623 10.508654 2.039703
14.002976 8.542464 1.814381
13.300469 8.789749 1.604479
13.617206 9.732121 1.527352
13.314591 10.262920 1.374722
14.115032 8.538384 5.042260
14.331180 9.428636 5.041080
13.122573 9.362778 4.564316
13.775879 10.629301 4.747675
14.712616 8.906538 4.537610
13.949588 9.177582 4.224592
13.718203 9.772224 4.088125
13.345417 10.273401 3.916088
14.267276 8.642728 3.739932
13.883816 9.129798 3.551689
12.948613 9.216851 3.235967
14.030336 10.785455 3.429331
13.247431 8.024935 2.874541
13.158000 9.360704 2.675010
12.627002 9.691610 2.482661
13.601873 8.240619 2.349263
15.317339 10.062125 2.526412
13.716775 9.747407 2.156239
12.728177 9.758680 1.901706
13.915206 8.430450 1.799649
13.399737 8.796407 1.613190
13.645374 9.689145 1.527170
13.319903 10.202023 1.372032
13.741109 8.254717 4.899615
14.352008 9.379376 5.038261
14.645017 10.381366 5.082752
13.760957 10.550594 4.731355
14.632970 8.797091 4.504702
13.778855 9.004807 4.164500
13.767950 9.744127 4.094021
13.471255 10.304606 3.943719
15.952617 9.596884 4.173978
14.014920 9.154544 3.578025
12.968028 9.170858 3.233773
14.073501 10.750107 3.431804
13.259352 7.976652 2.871804
14.734733 9.621791 3.088444
13.104481 9.262211 2.658340
12.766666 9.736711 2.504236
13.630481 8.200891 2.349848
14.126923 9.218209 2.325392
14.533409 10.260765 2.279652
12.604021 9.602235 1.878745
13.730641 8.261152 1.772493
13.417493 8.749277 1.612089
13.634349 9.618532 1.522626
13.201243 10.047028 1.356628
13.766369 8.212520 4.899615
14.470042 9.393287 5.069556
13.448027 9.471005 4.657214
13.146342 10.015474 4.509449
14.636644 8.738278 4.497559
13.660863 8.868005 4.120596
14.172991 9.965669 4.205353
13.472564 10.240242 3.934886
15.981984 9.547897 4.173978
14.015047 9.093406 3.570919
12.973653 9.115256 3.228186
14.107198 10.707473 3.431994
13.301486 7.946524 2.875636
14.488186 9.397518 3.030710
13.104577 9.202120 2.652621
12.838214 9.729127 2.512404
13.481485 8.055016 2.319890
14.121055 9.152734 2.319793
14.571316 10.220686 2.280669
12.752186 9.653426 1.896407
13.764454 8.224086 1.773592
13.408363 8.684813 1.607783
13.714356 9.612095 1.528260
13.330578 10.081026 1.366734
13.755298 8.148800 4.886754
14.489116 9.342610 5.066173
13.469926 9.424738 4.654763
12.857024 9.732865 4.399944
14.932033 8.852603 4.579958
13.701042 8.834457 4.124520
13.479343 9.416266 3.990946
13.250534 10.007493 3.861054
14.258101 8.458774 3.716960
14.084802 9.077383 3.581579
12.994326 9.070363 3.226391
13.454929 10.147488 3.265721
13.361319 7.926749 2.883300
14.492937 9.337555 3.025697
13.140839 9.167517 2.654255
12.732241 9.587466 2.485898
13.398936 7.950014 2.301477
14.217370 9.153341 2.330991
14.616439 10.185574 2.282829
12.838882 9.657236 1.904885
13.823812 8.202106 1.777990
13.402311 8.622641 1.603878
13.979967 9.734434 1.554523
13.374990 10.050259 1.368120
14.951007 9.616073 1.140827
13.806610 8.122078 4.896108
14.527406 9.304324 5.069556
13.487716 9.375680 4.650949
12.860610 9.673657 4.390994
14.717484 8.664493 4.505977
13.906866 8.906888 4.178235
13.447493 9.332758 3.973019
13.287407 9.971470 3.862865
14.276418 8.410533 3.714991
14.116702 9.036765 3.582624
13.003572 9.017611 3.221802
13.528422 10.137951 3.275995
13.499938 7.953093 2.907934
14.445193 9.244204 3.009794
13.198903 9.147952 2.660302
12.697515 9.500413 2.473415
13.369567 7.877231 2.292271
14.142732 9.044035 2.314194
12.807798 8.866959 1.996094
12.827087 9.586888 1.898762
13.828358 8.147547 1.775351
13.423671 8.578267 1.603277
14.015499 9.695465 1.555160
15.013237 9.591112 1.143325
14.236085 8.316043 5.039337
14.561550 9.263315 5.071530
13.592423 9.386745 4.677102
12.826862 9.586797 4.369409
14.806601 8.655898 4.525110
13.899772 8.842326 4.167933
13.401658 9.240158 3.951084
13.241414 9.873599 3.840670
13.602250 7.957253 3.533191
14.150137 8.997086 3.584087
13.240173 9.121659 3.273474
13.446859 10.012556 3.248790
13.514939 7.906177 2.905927
14.541647 9.243169 3.023969
13.246408 9.120842 2.664224
12.703607 9.444317 2.468946
13.400501 7.840173 2.293440
14.297515 9.081335 2.334951
12.829220 8.823688 1.995204
12.823751 9.523216 1.893934
13.849858 8.103077 1.774911
13.454966 8.540243 1.603878
14.208504 9.764664 1.573244
13.513248 10.025010 1.375944
15.042591 9.545007 1.143325
14.853831 8.615888 5.248628
14.626399 9.241659 5.084217
14.447090 9.911644 4.960703
12.858538 9.549125 4.370199
15.333155 8.900714 4.677665
14.389888 9.092219 4.306513
13.474038 9.229203 3.964056
13.214513 9.790600 3.824137
13.489910 7.836085 3.497749
14.197517 8.966164 3.589104
13.442760 9.200541 3.316567
14.220170 10.520704 3.427809
13.428608 7.800475 2.882205
14.947218 9.436704 3.102273
13.272700 9.079046 2.663897
12.827095 9.475159 2.487285
13.847910 8.045011 2.365777
14.563255 9.187542 2.373735
12.843946 8.775894 1.993297
12.840123 9.474395 1.892051
14.928315 8.672678 1.909701
13.497937 8.509536 1.605880
14.256489 9.733380 1.575243
13.529500 9.972860 1.374477
15.065050 9.494555 1.142812
14.756718 8.499160 5.205074
14.719697 9.237542 5.106772
14.537061 9.907916 4.981136
12.895536 9.515358 4.372831
15.363740 8.855563 4.678686
14.448097 9.067096 4.315588
13.441230 9.146272 3.946130
13.135457 9.669749 3.792656
13.515578 7.795637 3.498187
14.717873 9.231744 3.713471
13.547905 9.211598 3.335520
13.548383 9.959514 3.258492
13.521463 7.799031 2.896985
14.611439 9.162140 3.026734
13.307019 9.042720 2.665205
12.698391 9.320007 2.456771
13.575179 7.830961 2.315068
14.308478 8.965558 2.327713
12.869169 8.735334 1.993043
12.899562 9.457269 1.896525
13.733152 7.922089 1.753693
13.715410 8.587948 1.628611
14.283811 9.687920 1.574971
13.521437 9.903038 1.370565
15.088187 9.444586 1.142364
14.890645 8.515564 5.243074
13.893037 8.659465 4.810735
14.775336 10.004066 5.052240
13.034371 9.556179 4.409947
15.202857 8.700802 4.621541
14.363956 8.952986 4.282231
13.459566 9.098461 3.943300
13.139119 9.610429 3.785182
13.514875 7.740071 3.491842
15.128765 9.424923 3.809830
13.380406 9.037807 3.287439
13.674010 9.987388 3.281321
13.709140 7.851328 2.932021
13.986514 8.710612 2.891733
13.290545 8.972044 2.656380
12.943271 9.438773 2.498534
13.582830 7.779934 2.312291
13.589052 8.456826 2.206445
12.898375 8.697474 1.993424
13.305769 9.692455 1.951865
13.722893 7.860159 1.749295
13.889553 8.637783 1.646135
14.358890 9.674657 1.579969
13.546920 9.857989 1.370076
15.106921 9.391928 1.141596
14.968260 8.499117 5.261197
13.842855 8.569331 4.784233
14.707758 9.892637 5.018731
13.709283 9.986471 4.627904
14.728443 8.369407 4.469497
14.397950 8.912958 4.284193
13.521300 9.079879 3.953206
13.175632 9.575227 3.787221
13.824411 7.861119 3.565569
15.538483 9.614123 3.905562
13.373895 8.973783 3.279060
13.650556 9.906179 3.268385
14.007519 7.965242 2.990595
13.590992 8.406528 2.804613
13.118902 8.797704 2.616666
12.824147 9.291772 2.470024
13.592015 7.729912 2.309807
13.496961 8.342178 2.187327
14.992634 10.042876 2.312316
13.172942 9.533977 1.928081
13.667456 7.772816 1.739180
13.909215 8.590947 1.645334
14.506849 9.709770 1.592964
13.559331 9.803534 1.368283
15.128871 9.341342 1.141083
15.020090 8.467714 5.270258
13.866629 8.525314 4.783387
14.699638 9.821810 5.005655
14.023548 10.149689 4.723458
14.804578 8.352688 4.484803
14.824941 9.114491 4.402905
13.555561 9.042668 3.955093
13.238113 9.558708 3.796733
13.707412 7.739034 3.529253
15.511250 9.531590 3.891348
13.422563 8.946841 3.284247
13.602843 9.807985 3.249741
15.840136 8.943144 3.375984
13.594059 8.350872 2.799945
13.101495 8.727879 2.607841
12.724292 9.160021 2.445367
15.390200 8.690177 2.610845
13.556261 8.321461 2.192789
13.860680 9.223153 2.133361
12.944940 9.308576 1.890520
13.691238 7.730848 1.739180
13.889708 8.520139 1.639927
14.699110 9.773289 1.610776
13.552109 9.735141 1.364534
13.955771 8.521230 4.805096
14.731305 9.777730 5.006199
13.074776 9.402015 4.394153
15.379304 8.614852 4.650879
14.904134 9.100289 4.418113
13.593770 9.008016 3.958160
13.281622 9.528268 3.800809
13.614480 7.631578 3.499281
15.482822 9.448808 3.876926
13.519396 8.951602 3.301205
13.600947 9.743336 3.242131
15.693395 8.796911 3.338942
13.488447 8.229103 2.772979
13.112578 8.677298 2.604736
12.742691 9.114043 2.443518
15.410748 8.639535 2.609822
13.571577 8.273644 2.191150
13.828506 9.140658 2.124082
12.965358 9.263045 1.889342
13.790320 7.731094 1.748745
13.859701 8.443323 1.633318
14.747307 9.740221 1.612775
13.577044 9.690044 1.364045
14.806566 9.771940 0.970107
14.253395 8.643037 4.898419
14.778906 9.744141 5.012192
13.286458 9.492531 4.455486
14.920377 9.047484 4.414678
13.667610 8.996724 3.971604
13.308412 9.485780 3.800130
13.648914 7.595942 3.502125
14.249758 8.636409 3.561513
13.728544 9.029624 3.345495
13.021301 9.267777 3.097166
16.185956 9.007866 3.437844
13.438658 8.142257 2.757595
13.155625 8.647867 2.608004
12.931675 9.189373 2.474340
15.731939 8.756274 2.659654
13.585879 8.225298 2.189375
14.436878 9.479278 2.213052
12.990476 9.220925 1.888871
13.968562 7.774792 1.768315
13.728049 8.305480 1.614793
14.773789 9.692747 1.612411
13.566058 9.619519 1.359970
14.786372 9.693621 0.966831
15.455773 8.526833 5.395365
15.363121 9.251612 5.270015
15.246602 9.985531 5.160395
13.393401 9.507007 4.481546
14.953878 9.005167 4.416395
13.717921 8.969641 3.978209
13.974158 9.895789 3.981542
13.907880 7.684274 3.562506
14.189888 8.540709 3.539984
13.857083 9.053385 3.370034
14.025192 9.917601 3.328692
15.953618 8.814569 3.382736
13.438256 8.085756 2.752409
13.262222 8.659785 2.623857
12.972721 9.158773 2.476805
15.393335 8.506058 2.597985
13.549074 8.146316 2.179406
15.180380 9.900945 2.322357
13.012212 9.176449 1.887929
13.876645 7.667965 1.753693
13.763700 8.269473 1.615994
14.819309 9.657706 1.614138
13.627283 9.600240 1.363148
14.951593 9.736482 0.975677
15.479345 8.477996 5.394488
14.279811 8.539660 4.889396
14.470642 9.414017 4.887964
13.289265 9.371908 4.437060
15.077118 9.016467 4.444602
13.839912 8.988914 4.005570
14.030740 9.871365 3.989015
13.793650 7.566017 3.527284
14.227775 8.504158 3.542910
13.911096 9.027899 3.376418
13.266700 9.320329 3.141873
15.976275 8.763218 3.381824
13.458772 8.041964 2.751545
13.378946 8.677573 2.641671
13.022599 9.134250 2.480966
15.400277 8.448324 2.594770
13.498304 8.059511 2.167252
15.262296 9.887762 2.330237
12.803636 8.970667 1.853666
13.982890 7.670770 1.764137
13.706124 8.177756 1.606281
14.934139 9.667395 1.623407
13.675452 9.571532 1.365023
15.030021 9.722019 0.978844
13.895127 8.251840 4.748991
15.240509 9.848448 5.137784
13.319536 9.332200 4.437586
16.063097 8.740663 4.824862
15.078035 8.954328 4.436753
14.070757 9.077589 4.064302
13.581962 9.493466 3.853127
15.130520 8.239025 3.862663
14.252957 8.459969 3.542701
14.339824 9.243733 3.473577
13.143079 9.173386 3.105917
15.997904 8.711341 3.380729
13.527428 8.026771 2.760534
14.857686 9.572051 2.927836
14.539715 10.131967 2.764060
15.414829 8.394886 2.592870
13.493995 8.000884 2.162609
14.556875 9.367473 2.218136
12.809092 8.916026 1.850486
14.294411 7.784708 1.800418
13.823597 8.190444 1.617096
14.900067 9.580599 1.616501
15.009373 9.643478 0.975567
13.955089 8.229641 4.760832
14.555663 9.342720 4.897227
13.489043 9.389397 4.484442
16.070270 8.680771 4.818995
15.132157 8.923786 4.444602
14.298183 9.162309 4.121854
13.365413 9.281195 3.783597
15.160876 8.195350 3.863976
14.275475 8.414216 3.541865
14.063606 9.004722 3.399960
13.171968 9.133581 3.106107
16.135266 8.722065 3.404086
13.656367 8.046733 2.781795
14.318593 9.162702 2.816050
13.276620 9.191400 2.518568
15.464879 8.360728 2.596962
13.523599 7.962463 2.163428
13.215748 8.447224 2.009820
12.811066 8.859177 1.846836
14.249154 7.703474 1.791733
13.861524 8.155563 1.618598
14.950372 9.548242 1.618773
14.459655 9.988777 1.437154
49.269610 33.997514 2.705704
15.046633 8.811245 5.123970
14.753012 9.405607 4.953892
13.417807 9.278831 4.451275
16.020987 8.590760 4.796290
14.330324 9.121008 4.123034
13.407453 9.249549 3.787447
14.021766 7.524097 3.567757
14.298690 8.368897 3.541238
14.108530 8.972576 3.404150
13.187801 9.084772 3.103253
15.677654 8.412648 3.302082
13.716694 8.025689 2.789055
13.935329 8.857303 2.735316
13.390236 9.209415 2.534749
14.441836 7.750481 2.421162
13.562503 7.929435 2.165750
13.115994 8.326894 1.990755
12.836548 8.818708 1.846601
13.903139 7.461379 1.745337
13.864143 8.099948 1.615994
14.974549 9.499129 1.618227
14.447500 9.915042 1.432915
15.065732 9.549597 0.975404
49.578847 33.986842 2.716947
15.057836 8.755879 5.118613
14.650922 9.277426 4.910031
13.558329 9.314647 4.488390
16.088237 8.563376 4.808536
15.299575 9.672095 4.393343
13.520128 9.266190 3.811228
14.954233 7.965468 3.798782
13.867734 8.059644 3.428366
14.720054 9.298184 3.544800
13.294197 9.098052 3.121707
15.164496 8.077466 3.188764
14.147486 8.219588 2.871508
13.897368 8.773430 2.722568
13.253634 9.055694 2.503620
15.083702 8.035444 2.524625
13.964581 8.107129 2.225974
13.072679 8.243233 1.980333
12.861902 8.778165 1.846365
13.925086 7.418222 1.745227
13.890649 8.058374 1.616194
14.990983 9.445180 1.616864
14.471263 9.866180 1.432263
15.069609 9.487372 0.973766
49.675455 33.829514 2.716541
31.665563 16.838495 1.333259
15.117863 8.728830 5.129891
14.806373 9.312346 4.952530
13.621903 9.296936 4.499973
16.069123 8.490038 4.795015
15.347283 9.636480 4.398532
13.402766 9.125448 3.770234
14.769845 7.809177 3.745838
13.692504 7.901707 3.379037
14.233874 8.930104 3.421108
13.502283 9.179760 3.163941
15.168346 8.019874 3.184385
14.958394 8.629446 3.030710
14.016161 8.788402 2.740546
13.241296 8.987800 2.496069
14.119197 7.466110 2.359347
14.311229 8.249775 2.277185
13.086139 8.195718 1.978554
12.911787 8.754267 1.849662
14.168322 7.492087 1.772823
13.934274 8.026646 1.618397
14.082836 8.812754 1.515992
14.494037 9.816706 1.431530
15.089333 9.435271 0.973165
31.634883 16.697886 1.329804
14.829161 9.263309 4.950623
