x y z
-10.63327188 18.16748962 4.499390892
-11.94451973 19.15335342 5.4788233
-10.52717472 20.51327036 3.405964355
-12.38139947 18.79836326 5.233983106
-10.87822105 18.06951259 4.29414045
-10.8257494 18.10784719 4.295337311
-12.06556854 19.07411493 5.248025006
-12.02512855 19.1399083 5.255951947
-14.09422224 25.52446588 4.019453549
-13.80605986 25.94845246 3.766331454
-11.60929362 22.11833639 3.690050581
-12.30302906 22.10398252 4.190653607
-12.12019477 22.09342678 4.174474046
-11.65067807 23.42303096 3.606350923
-11.18124839 22.82950302 3.504338527
-12.12200194 23.65117516 3.405496854
-11.53502837 23.56472241 3.361901779
-10.97970639 23.14529342 3.282591839
-11.23719349 21.92518528 3.842654313
-10.95945676 22.59441298 2.977545264
-10.67159463 22.88856708 2.994382861
-10.49832411 23.06897034 3.005215409
-13.52981075 24.13216228 4.855393287
-17.05806056 32.54829285 3.698321556
-17.14250511 33.47687956 3.432110743
-12.98132699 27.76639181 3.39040641
-12.37824209 28.77763786 2.310946808
-12.77404828 28.03750645 3.100810265
-12.62877684 28.89598903 2.023810292
-12.98276083 28.74944623 2.878585533
-12.34242498 28.78168622 2.560925804
-7.532298048 22.96562191 0.898498011
-7.154797203 23.00021377 0.895451796
-6.497575949 21.85767753 0.015521509
-6.451689334 23.54299013 0.01661604
-6.638586033 22.59916055 0.649695695
-6.485851164 22.87326954 -0.213291455
-6.509105645 24.3738128 -0.226326127
-7.8127978 23.20085752 1.106538107
-6.443435103 22.47476703 0.4223893
-6.54166094 23.95781656 -0.453439174
-6.529275882 22.8183347 0.205881609
2.458428978 6.095667342 -0.23641709
2.489960135 6.01368929 -0.234116544
2.457067301 5.890053069 0.004344089
2.456619406 6.084024477 -0.297142502
2.466390736 5.475247984 -0.215999742
2.484547884 5.482105891 0.223751497
2.487321273 5.46917306 -0.435839066
2.452543587 5.349094417 -0.426867613
2.441710551 5.289899229 -0.209565392
2.470154375 5.301399124 -0.42426298
2.252609152 5.313348031 0.370370085
2.436353335 5.194292794 -0.206366201
2.483290188 5.258086873 0.003958145
2.487129177 5.790221329 -0.517547242
2.313619928 5.365405437 0.374981279
2.435504874 5.110682489 -0.203634297
2.427375026 5.053640964 -0.201657271
2.477430403 5.64166171 0.169958175
2.484183995 5.124671861 -0.413121024
2.479720596 5.087884597 0.003852639
2.441080675 5.496030505 -0.493892184
2.401056832 5.374840044 -0.052811522
2.494875286 5.067276905 -0.409720549
2.416714006 5.365625152 -0.052793581
2.484255201 5.006885246 -0.405451873
2.495654942 5.00771838 0.208000105
2.43199385 5.916600855 -0.11679632
2.489909644 5.469702142 -0.493564776
2.482752675 4.943777616 0.205659684
2.458559204 5.92943074 -0.117197936
2.442660894 5.322542972 -0.480959617
2.473115231 5.352196865 -0.267012027
2.469743773 4.847301607 0.401318446
2.467487995 4.834735895 0.003694722
2.446830089 5.792951295 -0.345746959
2.465191063 5.256401444 -0.052084882
2.4908507 4.832548868 -0.394382248
2.479836479 4.790469889 0.200533059
2.603286556 6.066957818 -0.12053862
2.490721147 5.2561411 -0.477685562
2.466318089 4.732388459 0.393667266
2.464054038 5.700208011 0.112190382
2.432797571 5.099642954 -0.255882767
2.479265612 5.162279688 -0.051376183
2.472900314 4.691190402 -0.384687284
2.472703186 5.111126361 0.156612978
2.416698512 4.556432138 -0.185517495
2.432660109 5.512931683 -0.551678102
2.472163021 5.070271182 0.155592785
2.458342241 6.127695336 -0.184191954
2.506438115 5.125798069 -0.468600027
2.474042799 4.604857013 0.19432908
2.670319379 5.968813964 -0.119388548
2.477170259 4.596237492 -0.378754565
2.467229811 4.558576033 0.192694512
2.423045838 5.371825478 -0.107595732
2.488796317 6.089341292 -0.424593296
2.452971857 4.495281613 0.003485754
2.4329033 4.867244252 -0.246427414
2.464595804 5.404741868 -0.54383735
2.470621073 4.498680185 0.190799874
2.466902782 4.903170998 -0.049241118
2.4688394 5.378502585 -0.325379844
2.466513534 4.458725308 0.189425346
2.471986141 4.87595793 -0.049043756
2.462685261 5.321969412 -0.322415347
2.488165676 4.4733595 0.566203813
2.484259172 4.871927669 0.350964542
2.469865026 5.306401797 0.10574183
2.618589096 6.194656882 -0.187622023
2.459589643 4.382505682 0.186824885
2.460671353 4.780679686 -0.048236377
2.442609413 5.194713848 -0.31560802
2.459511406 4.751130169 0.343343253
2.474592807 5.232397018 0.104567723
2.648257727 6.159188158 -0.187036407
2.46392328 4.724095924 0.341934259
2.479447645 5.201314332 0.104098076
2.57885948 5.947436899 -0.180845541
2.445804515 4.268585347 0.362915471
2.445003933 4.64704071 0.144839436
2.45967761 5.114315805 -0.103616116
2.448237472 5.594011049 -0.394127187
2.445219943 4.234301181 0.181772557
2.453561555 4.626445581 -0.046980456
2.445142116 5.038585701 -0.307922328
2.446587763 5.538638212 -0.614077496
2.436371589 4.192277631 0.357692078
2.45039921 4.588743861 0.143488363
2.447564224 5.010188768 -0.101808859
2.464664414 5.538767407 -0.391293106
2.414493267 4.493949258 0.32739612
2.464541541 5.010796532 0.100882837
2.483595815 5.540445336 -0.169384089
2.443312747 4.145460484 0.354970023
2.454695427 4.529679033 0.142109737
2.447598599 4.933276561 -0.100549256
2.48338556 5.489898984 -0.388909933
2.485121816 5.464304984 0.271328975
2.439455811 4.103671596 0.003249558
2.400977639 4.391358874 -0.226657119
2.467295906 4.922213717 -0.504086653
2.47185683 4.139768331 0.533330958
2.469248751 4.910955779 0.30058202
2.468222836 5.381772725 0.051359804
2.412099706 4.02562978 -0.168802594
2.485098448 4.133084462 0.712407272
2.443345667 4.056745971 0.176051524
2.45251407 4.425688004 -0.045392614
2.432969093 4.787105615 -0.295240904
2.455173419 5.292309477 -0.591677713
2.470957669 4.081161036 0.527723948
2.438939787 4.377054829 0.321568067
2.446475441 4.787217841 0.097125696
2.43847996 5.223623177 -0.160822866
2.474671138 4.059134052 0.525854926
2.459991507 4.782358301 0.294084428
2.47810647 5.274657943 0.050553108
2.477753039 4.036275239 0.523875932
2.453516891 4.734008973 0.291572748
2.472450302 5.220939237 0.050110726
2.448015449 4.29978574 0.31753325
2.434852712 4.658167669 0.094958114
2.442476177 5.1089702 -0.157978413
2.44928181 4.271477732 0.315996195
2.444007523 4.640944457 0.094759421
2.429934061 5.042918924 -0.156165776
2.456386083 4.253573144 0.315227653
2.445113738 4.60869402 0.094253646
2.418756786 4.980590157 -0.154464689
2.448606558 3.881153614 0.507604461
2.450861062 4.214098147 0.31285801
2.440389375 4.565899097 0.093531119
2.426994787 4.95878047 -0.154018504
2.489346492 4.254639699 0.679536605
2.434880264 3.826936878 0.168621626
2.447042208 4.170970966 -0.043383136
2.41317657 4.472873651 -0.279430295
2.614281727 5.291115839 -0.598538922
2.454591214 4.533759485 0.470464633
2.471824805 4.981805146 0.251370987
2.438905697 3.804351428 0.003075986
2.446021744 3.799117684 0.499798518
2.430425759 4.091833798 0.305428828
2.444437375 4.473929266 0.092104131
2.434478689 4.86026364 -0.151648117
2.435045595 3.753109153 0.330030159
2.439446717 4.073628188 0.130970359
2.448762129 4.44530672 -0.09266304
2.452698817 4.855347079 -0.351101037
2.464163973 3.776187607 0.666082541
2.471623979 4.466537083 0.465829954
2.465112614 4.85551647 0.246133169
2.437139392 3.725673913 0.00303038
2.443505911 3.719121952 0.825885337
2.43175764 4.00956219 0.300945695
2.442614939 4.374421291 0.090514572
2.430328443 4.742463907 -0.148664248
2.437557086 3.682306095 0.325763152
2.438249548 3.987893027 0.128929973
2.452787549 4.35723556 -0.091293906
2.451010876 4.743026461 -0.344595578
2.463555538 3.699966898 0.824972968
2.477470821 4.033072273 0.652497139
2.430039394 3.646593851 0.323261813
2.435799414 3.956559343 0.128157944
2.451843104 4.324466659 -0.090764505
2.442047326 4.690342372 -0.341310647
2.471610736 3.687490982 0.823878149
2.477325928 4.005232454 0.649219657
2.457999659 4.703775345 0.434006863
2.427253927 3.615852827 0.161897567
2.443262112 3.939700213 -0.041588962
2.472320416 3.969863612 0.644713068
2.471026216 4.693566164 0.433762335
2.428264622 3.593485232 0.161228877
2.44421514 3.914373903 -0.041400574
2.475015376 3.947153119 0.642254973
2.473271907 4.663070235 0.431643241
2.434219476 3.578582024 0.160894525
2.44290727 3.885692814 -0.041176304
2.4671555 3.608583158 0.811287265
2.487327931 4.279141967 0.634225148
2.434620097 3.558062136 0.31803842
2.42644739 3.835138082 0.125180096
2.438732775 4.180915416 -0.088373085
2.428669671 4.528109489 -0.331649092
2.412659139 3.506133532 0.470773708
2.435870599 3.828438325 0.291210915
2.437301941 4.152811765 0.086992251
2.422384654 4.486871616 -0.142250297
2.466386085 3.854116159 0.6307837
2.457173639 4.531466439 0.421536797
2.422052365 3.491162407 0.157959712
2.442387326 3.806655721 -0.040575255
2.487235493 3.863370933 0.806380089
2.425031579 3.478218242 0.469014625
2.432272391 3.771486568 0.288008685
2.428475742 4.080214231 0.085782023
2.394158289 4.37022953 -0.139015433
2.462313297 3.508697273 0.633202176
2.444524284 4.085766825 0.434477762
2.463649898 4.472079101 0.23078089
2.437759827 3.465470693 0.002884034
2.469459147 3.495631724 0.794317048
2.472359324 4.107067154 0.614270587
2.469787958 4.456354661 0.416646593
2.427532134 3.431196391 0.156250831
2.443908668 3.732981581 -0.040028032
2.483211638 3.780220402 0.793761488
2.471065718 4.076560527 0.610838908
2.475189522 4.433962179 0.415261023
2.429932315 3.412336633 0.155730751
2.441042588 3.703758061 -0.039794788
2.476325548 3.744651501 0.787884351
2.475292475 4.055413976 0.608805317
2.473149775 4.398547072 0.412652903
2.422342862 3.379686462 0.154579114
2.438573063 3.675420728 -0.039570518
2.491736982 3.459163624 0.955821076
2.477977751 3.722278563 0.784772928
2.475777498 4.028364427 0.605882065
2.469934116 4.361451867 0.409881793
2.418084219 3.351977951 0.15365037
2.436508197 3.647965053 -0.039355215
2.484009946 3.426223038 0.948820275
2.469646233 3.685203269 0.778550025
2.467246748 3.987011905 0.600798088
2.461082229 4.314895048 0.406214111
2.421311077 3.334839916 0.153204572
2.4393193 3.628025266 -0.039220653
2.478980228 3.397303547 0.942913394
2.469373087 3.660462282 0.774920042
2.469501114 3.963428485 0.598383206
2.453457695 4.271026433 0.402790957
2.42209712 3.31448628 0.15261018
2.440910244 3.606446334 -0.039068147
2.471111589 3.364791478 0.774792117
2.457150659 3.615769783 0.60265174
2.419437753 3.853528487 0.415212081
2.454467804 4.237475533 0.221343746
2.444784514 3.307987341 0.607628623
2.427922063 3.54689479 0.432587361
2.442257461 3.86051836 0.249802499
2.447648945 4.19495987 0.04213048
2.411944362 3.242691433 0.447026144
2.425621407 3.519262462 0.274303134
2.431022355 3.813264383 0.081699746
2.425699944 4.122426389 -0.133438078
2.483226593 3.883062625 0.763541566
2.496514809 4.229796314 0.582368674
2.424289769 3.235549868 0.298248396
2.423514332 3.489318911 0.117184006
2.438218118 3.795583091 -0.082367149
2.479127481 3.290297966 0.923661333
2.464395827 3.534892053 0.756251392
2.474118443 3.838376835 0.585164864
2.440706932 4.101843418 0.39032092
2.423296889 3.211532072 0.14956392
2.448768993 3.229344015 0.752165121
2.462226126 3.506311356 0.590634192
2.425107065 3.734114572 0.406306223
2.456481661 4.094815417 0.215834995
2.440629069 3.198529406 0.59433035
2.408500981 3.405257844 0.419769978
2.44596989 3.738212063 0.244287728
2.433621386 4.027686175 0.040820679
2.403286289 3.129633762 0.436471652
2.427798699 3.409293393 0.268603171
2.427589728 3.682034843 0.079676667
2.391391803 3.925099737 -0.128223253
2.459604899 3.438340171 0.903598777
2.472295908 3.7383628 0.742459223
2.483430921 4.06390097 0.564706863
2.410787649 3.116731376 0.290670798
2.415562332 3.366455362 0.114288874
2.434744533 3.665291941 -0.08034083
2.466403208 3.171009392 0.900690177
2.450981026 3.403163141 0.736027117
2.459540348 3.690200829 0.568260688
2.434861591 3.95275642 0.37964394
2.4010413 3.08253185 0.145254579
2.443474503 3.121720474 0.735742311
2.447665029 3.374310217 0.574656332
2.421032997 3.605531708 0.396309869
2.451022307 3.947174456 0.210010146
2.439212771 3.096988505 0.582347255
2.412322389 3.302032812 0.411558813
2.431412528 3.594389846 0.237298726
2.438385158 3.899164726 0.039892541
2.468659926 3.637159417 0.894978336
2.49465634 3.976509894 0.732161608
2.394210419 3.02073833 0.426356952
2.423046516 3.294475215 0.262454892
2.413397393 3.541089638 0.077418769
2.486315214 3.115020015 1.05155629
2.468475121 3.341216706 0.88792216
2.465321441 3.606339405 0.723664807
2.471701652 3.908665184 0.548340263
2.416002654 3.026386213 0.285668091
2.407996405 3.249495824 0.111559175
2.461612246 3.066601714 0.881656865
2.439411159 3.279812573 0.717358468
2.461835954 3.573623676 0.55605914
2.434675205 3.819968582 0.370434038
2.413225863 2.98750125 0.712750357
2.434995091 3.250738779 0.55990758
2.426658074 3.496791327 0.38840367
2.450806733 3.814978642 0.204952931
2.420916585 2.978601913 0.567003111
2.408761613 3.193152718 0.40254659
2.432486082 3.479743493 0.23216617
2.437076529 3.767268584 0.038921034
2.461087077 3.248605503 1.03113001
2.474082568 3.527464406 0.877222409
2.471453558 3.80847827 0.708120967
2.399991939 2.934417397 0.419320625
2.4352732 3.206850109 0.258420075
2.427132297 3.446430858 0.076154346
2.484628319 3.016806339 1.031147543
2.457162029 3.221318171 0.865974954
2.437818041 3.451257496 0.699967608
2.46015992 3.761421247 0.532915595
2.424729835 2.943554898 0.281327531
2.416861829 3.158984515 0.109711804
2.453588897 2.962351077 0.862404804
2.445043914 3.184198668 0.704567012
2.455970324 3.450590131 0.542713721
2.433196423 3.691467613 0.361550116
2.441771602 2.929740291 0.707823554
2.440334799 3.155798161 0.549938465
2.410960203 3.362844407 0.37758945
2.431096132 3.659609122 0.198586246
2.473403949 3.182946544 1.019847446
2.45592863 3.411743225 0.855875422
2.471972457 3.708800907 0.695175972
2.393669969 2.854479151 0.412064415
2.427836346 3.11688985 0.253552671
2.416531005 3.343456071 0.074528659
2.451171843 2.904594448 0.852122466
2.422649593 3.095629821 0.689874168
2.450922054 3.377265224 0.534706492
2.413678523 3.589517283 0.353725784
2.463353482 3.653085937 0.853813193
2.4190116 2.849009518 0.552097361
2.413932544 3.061001244 0.392332708
2.41468395 3.300984567 0.223648309
2.417547083 3.56672824 0.037377031
2.475018201 2.894864323 1.004871431
2.445593003 3.086631971 0.841728499
2.442539219 3.326281418 0.68362467
2.456897808 3.609601377 0.517726425
2.416926723 2.82641891 0.27433847
2.437067522 2.834534226 0.693772892
2.431604405 3.046761048 0.537374699
2.406555243 3.250233283 0.369047091
2.433225826 3.543652143 0.194296648
2.464316745 3.072784849 0.996546441
2.446004568 3.290311068 0.834727875
2.455702094 3.564669787 0.675142075
2.405311082 2.780592222 0.406677256
2.422840417 3.013947491 0.248172934
2.46340388 2.829854386 0.841183763
2.43086107 3.009830267 0.67898416
2.421541705 3.231323653 0.517420966
2.418403352 3.480047482 0.346553468
2.433220796 3.491636083 0.824705978
2.416152201 2.758730655 0.541721801
2.398427447 2.947212568 0.382419263
2.419898208 3.203799407 0.219553186
2.421489896 3.457150273 0.036613705
2.471166799 2.802168905 0.985738339
2.45427476 3.001816595 0.828769198
2.430093093 3.205092549 0.666301175
2.433138671 3.459398435 0.501477601
2.420415803 2.744137335 0.269924358
2.443076043 2.75488792 0.683371764
2.413818991 2.931104152 0.523445273
2.405324282 3.146478097 0.361413524
2.424868136 3.417917359 0.189420035
2.500848604 2.799123355 1.147296936
2.465424749 2.979352736 0.97839623
2.440106812 3.179333903 0.815974464
2.449932636 3.442059865 0.658960903
2.396728167 2.686262395 0.398211669
2.413358541 2.909602787 0.242601032
2.42307961 2.698797932 0.813180784
2.4395419 2.927545348 0.668785567
2.419840339 3.127898909 0.506744642
2.419186933 3.369675066 0.339218133
2.461899823 3.169697653 0.974149226
2.45896129 3.415657676 0.815574249
2.411103051 2.669222397 0.53134624
2.388971263 2.845306016 0.373907691
2.41288638 3.094645864 0.214584439
2.43565567 2.679547097 0.81186817
2.427606295 2.877140577 0.660661217
2.42002336 3.088787835 0.502804537
2.422230926 3.330586446 0.336773031
2.475590591 2.703337507 1.120404871
2.475459032 2.917825278 0.968094643
2.435905337 3.094483338 0.8018096
2.447113164 3.350299384 0.647094633
2.389266234 2.612640153 0.391615133
2.40233524 2.825031239 0.237989838
2.487416899 3.393801872 0.978399225
2.414141971 2.623357404 0.661657136
2.407496483 2.816149751 0.510744953
2.397809882 3.019781111 0.351871565
2.422740075 3.285070485 0.184498271
2.466248722 2.661948708 0.957421305
2.439882862 2.839074117 0.800133278
2.443426159 3.063505999 0.64914106
2.416824405 3.262985798 0.481460872
2.502065873 2.894752453 1.124375093
2.478625001 3.09213235 0.96188396
2.454834352 3.301903026 0.797310849
2.403887672 2.580530644 0.520970681
2.406278692 2.778242384 0.369902258
2.402482313 2.985700354 0.209561093
2.443104424 2.60627569 0.800929467
2.43588853 2.798702163 0.651154096
2.406001543 2.97571482 0.490348835
2.40181194 3.198201182 0.327074103
2.460298291 2.605250948 1.095266612
2.468211158 2.8204173 0.948227519
2.454047382 3.021007309 0.792432894
2.458354155 3.259515852 0.636769499
2.390872498 2.535189542 0.38545836
2.484519656 3.283016598 0.957336493
2.426349057 2.556777057 0.654175678
2.405202642 2.727621111 0.501322115
2.404085848 2.934115659 0.346146361
2.423219052 3.18234801 0.180795674
2.458698635 2.573468539 0.939053479
2.432548082 2.744234065 0.78382962
2.439349742 2.963963567 0.635903285
2.414110886 3.156901472 0.471217009
2.475305631 2.77653868 1.093079792
2.474976352 2.992343874 0.94254249
2.456178334 3.199999602 0.781710884
2.397956606 2.49626732 0.511325756
2.390942666 2.67644983 0.361190414
2.409728055 2.902402763 0.206284984
2.438035675 2.522189471 0.786490421
2.435764535 2.713366777 0.639918324
2.399896488 2.876764577 0.480053801
2.40539827 3.102694264 0.321042829
2.495968245 2.563094516 1.093512805
2.465065395 2.731128908 0.930813128
2.442190996 2.913915835 0.774078478
2.446757991 3.142680517 0.621204699
2.391366771 2.459026638 0.379411499
2.493426292 2.963285087 1.096536394
2.480020964 3.174671053 0.936726698
2.43846368 2.491851951 0.647059123
2.404769175 2.644234688 0.492718661
2.399949468 2.839092759 0.339239792
2.419276463 3.078043067 0.176957598
2.461919305 2.498945048 0.925532761
2.435426451 2.664014154 0.771497361
2.423867097 2.854753205 0.620377526
2.402571418 3.043889369 0.459795716
2.495525889 2.714229303 1.083493817
2.474538649 2.900062689 0.9253239
2.450717496 3.093460194 0.764779229
2.393497885 2.416318565 0.502411526
2.384524479 2.58823661 0.354180908
2.441305701 2.44924906 0.775332968
2.429591006 2.624368446 0.627645488
2.408803003 2.799015405 0.473190445
2.410989083 3.013291244 0.315582089
2.453994183 2.445466978 0.914052906
2.431185043 2.610713049 0.762509456
2.431321565 2.810685695 0.615638064
2.417414588 3.00539822 0.457323077
2.438051104 2.413115983 1.048497829
2.445336055 2.610995721 0.905059391
2.441388484 2.806368593 0.757320038
2.440824047 3.0187425 0.605485822
2.44508126 2.594722456 1.047687518
2.460035998 2.812424785 0.906925913
2.451352822 3.01743451 0.753364584
2.396893379 2.361078004 0.497004548
2.39629671 2.537800262 0.351276969
2.463753026 2.803536593 1.056761381
2.479250127 3.036931249 0.911587303
2.428880387 2.377699889 0.630818765
2.397562318 2.525173714 0.480018341
2.399727062 2.718218145 0.330879227
2.44558422 2.983790397 1.052669869
2.447815363 2.381573472 0.765706937
2.417190711 2.531935458 0.614335415
2.404703496 2.709069047 0.464166392
2.416316484 2.926764557 0.310365848
2.459233665 2.376627953 0.902317884
2.422853939 2.523033556 0.747668913
2.431457496 2.725210962 0.605015203
2.406152543 2.899189854 0.446725968
2.478919142 2.379407701 1.050251636
2.450078543 2.536917575 0.892305132
2.435067762 2.71388876 0.742357186
2.43810517 2.922526808 0.593619551
2.481251531 2.553471192 1.046277867
2.457971635 2.724571973 0.890650746
2.450051125 2.923048263 0.739096363
2.381324755 2.274833594 0.486482839
2.478035988 2.734046417 1.044774411
2.467816058 2.930006064 0.890751011
2.432978662 2.309701093 0.622607332
2.393739397 2.444921017 0.471687997
2.396889889 2.632488508 0.32488142
2.488573627 2.942979342 1.051616894
2.442894412 2.304906581 0.75301812
2.428795992 2.467185601 0.607594009
2.411147921 2.633819964 0.457557249
2.414396425 2.834725341 0.304497593
2.446014052 2.292342614 0.884460333
2.420673389 2.444574521 0.735336711
2.428885289 2.639678762 0.594228849
2.417402662 2.823469299 0.440720978
2.470325135 2.299402354 1.031544121
2.444923242 2.455073486 0.876607652
2.415182182 2.610049234 0.72400277
2.440754456 2.836105428 0.583602632
2.432524279 2.427681197 1.009907591
2.461744802 2.645993839 0.877206085
2.437452285 2.81902833 0.722164651
2.389812765 2.213835857 0.481221955
2.47369098 2.646508805 1.025704144
2.472224166 2.845485139 0.876482673
2.434123296 2.240811149 0.614030997
2.402808386 2.380029582 0.466225469
2.450350326 2.809220341 1.017133343
2.441246718 2.233570769 0.741860668
2.434779914 2.398534715 0.599815425
2.400196889 2.542430728 0.448024798
2.408258664 2.741200138 0.298384809
2.467230263 2.811115572 1.020555365
2.44014636 2.218849501 0.739454131
2.437200549 2.386230029 0.598605391
2.405253233 2.532178354 0.4475164
2.404775292 2.720357335 0.296917759
2.477120185 2.804979033 1.021081908
2.441874666 2.206773222 0.737922711
2.436745183 2.371185693 0.596704002
2.401360074 2.512597194 0.445355703
2.407810749 2.707009312 0.296265715
2.461386237 2.569401585 1.007451294
2.458371946 2.760379927 0.859496599
2.427058476 2.179893377 0.605454604
2.391232455 2.311122764 0.458441401
2.462968606 2.369192476 1.004268869
2.450638844 2.538705342 0.856449421
2.446965517 2.726921304 0.709989091
2.39104443 2.134555216 0.473476837
2.475906353 2.193691037 1.0110828
2.444173772 2.336718556 0.855514104
2.412260205 2.481832482 0.70465081
2.443351552 2.702065819 0.568191969
2.466035473 2.724303813 1.002655494
2.427783682 2.140503895 0.725671393
2.427803334 2.305160541 0.58754253
2.401473635 2.451761126 0.439763355
2.411974686 2.645587526 0.292761051
2.464440836 2.32732012 0.996092545
2.433702398 2.475159584 0.842532989
2.430230545 2.658633486 0.69800373
2.441206711 2.124585465 0.853847328
2.436265492 2.285573703 0.714016547
2.424422591 2.447559328 0.570695029
2.406595429 2.609929818 0.420939746
2.442470752 2.457463595 0.981025455
2.415554042 2.613800733 0.827562697
2.434060275 2.106539606 0.59742568
2.3934999 2.229579389 0.450930441
2.440348514 2.096255965 0.98331383
2.428542723 2.251496583 0.83785444
2.423686266 2.418238165 0.697069636
2.433298513 2.609350467 0.556479837
2.445652241 2.619866218 0.977911579
2.441788278 2.087161607 0.72020207
2.420851033 2.228953939 0.577516791
2.404966214 2.381138115 0.433662582
2.462349052 2.254902031 0.981149781
2.433329804 2.400005396 0.82956004
2.436382223 2.584609735 0.688301286
2.409953141 2.033267307 0.831908049
2.414614652 2.196605723 0.697712888
2.428548247 2.377644528 0.563013838
2.412131843 2.536725436 0.415052476
2.468860178 2.408957637 0.976666566
2.425796893 2.545416242 0.817597516
2.444995989 2.051261152 0.59231637
2.409012529 2.007300489 0.827316106
2.428047439 2.181748501 0.697712889
2.429617322 2.349667666 0.559908675
2.408368175 2.50184531 0.411755595
2.467655034 2.204699317 0.97240971
2.447193903 2.355139076 0.824370859
2.426988649 2.512153362 0.676886697
2.467284549 2.547380008 0.967645512
2.431582508 2.002166632 0.70620058
2.426104892 2.152638825 0.569219646
2.398874481 2.289217256 0.424892741
2.46810261 2.016975762 0.974252375
2.408195646 2.12514896 0.81259125
2.424756579 2.303364147 0.680909743
2.423315105 2.474027489 0.540144526
2.467781143 2.335092882 0.961955188
2.428373023 2.471087125 0.805594034
2.427351394 1.973815867 0.580637913
2.419208886 1.953709618 0.820428135
2.418462566 2.106989776 0.685589661
2.402767763 2.253408711 0.545690345
2.403086653 2.420912282 0.404455396
2.452595328 2.124500082 0.95351969
2.453192916 2.289476266 0.814464268
2.433365305 2.442636255 0.668135484
2.465164781 2.468278125 0.951851532
2.410144143 1.923246148 0.691323976
2.425238221 2.086266296 0.561441059
2.469512787 1.95572439 0.962852509
2.427987567 2.077245054 0.808421607
2.416560132 2.22606531 0.668939462
2.429383632 2.405282244 0.533209706
2.460772276 2.257933634 0.945609331
2.45351287 2.421232346 0.801517375
2.421818447 1.908357511 0.572244029
2.467153131 1.929341742 0.957298668
2.456237979 2.075447895 0.813572342
2.417127481 2.199325255 0.665348343
2.413015414 2.359933295 0.526428964
2.467261026 2.071821738 0.946753189
2.460642511 2.226798491 0.80550116
2.44381571 2.379000457 0.660906215
2.457857393 2.213938854 0.936619101
2.465899639 2.389059822 0.798346645
2.423723147 1.873958952 0.568594497
2.460336976 2.202537163 0.934984504
2.466902877 2.375402793 0.796308285
2.427901783 1.865316198 0.568229539
2.45917526 2.187943467 0.931987761
2.466438444 2.36041539 0.793816991
2.425798002 1.851892563 0.566404801
2.462992974 2.177839145 0.930898067
2.468022313 2.347467172 0.792005129
2.422851324 1.837905194 0.564397555
2.462435292 2.163921029 0.928173718
2.456101952 2.321818397 0.785890169
2.416701169 1.821586214 0.561660448
2.463265035 2.151292937 0.925994276
2.44830652 2.300266593 0.781134076
2.466946812 2.14120275 0.924904581
2.450368787 2.288091068 0.779548653
2.464761422 2.126082817 0.921635387
2.449523594 2.273274326 0.777057356
2.456662606 2.10598655 0.916186748
2.45075866 2.260465761 0.775245553
2.453590919 2.090327905 0.912645159
2.454810218 2.250303625 0.774339623
2.451180454 2.075329836 0.909375964
2.46170259 2.242761689 0.774339623
2.453854823 2.064702621 0.908013819
2.458463432 2.226046089 0.771168894
2.462168905 1.90544427 0.914893971
2.451244981 2.046571358 0.775073762
2.43158057 2.185172472 0.633511145
2.447266946 1.738481058 0.91754523
2.438450707 1.875155745 0.778252954
2.427485811 2.012626157 0.642006327
2.4172613 2.155676971 0.505162264
2.434932259 1.719713178 0.786498729
2.416980641 1.846004301 0.650055997
2.452974865 2.013070807 0.898478743
2.44982596 2.1641117 0.760071283
2.452178085 1.708230559 0.913452955
2.433936597 1.836284994 0.771385307
2.427664999 1.975356015 0.637218169
2.412465673 2.111861019 0.500076735
2.456085926 2.147792149 0.890254901
2.421283654 1.677950137 0.660476962
2.446042001 1.821974498 0.896285997
2.440033105 1.962130664 0.759977936
2.436509067 2.109840088 0.624569675
2.443463186 1.670157107 0.780886355
2.411206911 1.783704698 0.641068094
2.443262428 1.796700366 0.891211078
2.442133119 1.939265768 0.756911632
2.444932371 2.091021619 0.623428244
2.448495472 2.088689602 0.878146216
2.427134427 1.638284522 0.656539005
2.450625823 1.640988523 0.901468427
2.425744515 1.760987872 0.75838583
2.41424893 1.891656659 0.624449899
2.414675241 2.036521174 0.492679562
2.464471289 1.923259855 0.88512957
2.453734801 2.062600253 0.74535001
2.446211792 1.617547075 0.773743336
2.417613604 1.731703131 0.635633579
2.446306286 1.74176071 0.882470951
2.434622758 1.873133486 0.74558979
2.449511029 2.030715886 0.616579493
2.459428878 2.033672252 0.870775685
2.443808345 1.595527028 0.654351276
2.453836309 1.589168961 0.893576178
2.42233102 1.702389418 0.749065395
2.425029655 1.840774792 0.619861294
2.437653356 1.842872287 0.865242063
2.419389835 1.971194332 0.725646145
2.440594862 1.560561099 0.764304341
2.4125499 1.672684626 0.627481749
2.437975354 1.680076889 0.870065616
2.436575716 1.815824409 0.737570164
2.440576096 1.960928425 0.606686791
2.464738484 1.975195212 0.861825749
2.429213183 1.533373456 0.644068936
2.450364601 1.534088057 0.883637818
2.425713748 1.649766929 0.742197746
2.418242397 1.777821843 0.611083081
2.447002716 1.791621951 0.85870373
2.425643212 1.915139944 0.718625194
2.436280079 1.505657732 0.755630673
2.416809074 1.621316489 0.622047177
2.43472178 1.623322148 0.859915779
2.420801145 1.746958699 0.724597213
2.430086261 1.891900344 0.596794148
2.423119788 1.88153792 0.837081836
2.431837257 1.472154871 0.7500183
2.43911854 1.594021475 0.856250569
2.439949998 1.726849805 0.725540695
2.434133042 1.859323355 0.593560001
2.436299461 1.715805896 0.843720015
2.448852255 1.86132642 0.71522797
2.420643334 1.83244551 0.828395115
2.439720863 1.436315155 0.746957005
2.448375315 1.430224326 0.866684169
2.405650972 1.530352452 0.721349472
2.398459785 1.645499418 0.823560115
2.428465135 1.799243844 0.702771493
2.439433497 1.406074009 0.742875221
2.446731337 1.525036076 0.847228513
2.436215277 1.646844313 0.713747141
2.423553193 1.770143912 0.581574639
2.439608479 1.386302458 0.740324143
2.437244308 1.498437189 0.840743886
2.441423677 1.628629345 0.712331889
2.425609331 1.748924133 0.579481978
2.423372582 1.742636842 0.814443754
2.450102137 1.36152396 0.856745811
2.427182923 1.471805801 0.718160924
2.425998101 1.588870742 0.821108218
2.441900669 1.729229975 0.695750601
2.419887464 1.326409398 0.728078965
2.419520781 1.436870549 0.826928841
2.41712273 1.559379156 0.698179601
2.455860534 1.565704644 0.824649809
2.410824177 1.663182228 0.681029326
2.444352115 1.300028768 0.846222791
2.423692294 1.409336389 0.70933109
2.418395863 1.650552933 0.79891299
2.430456146 1.393384513 0.823263632
2.4184942 1.50823482 0.691811082
2.446032541 1.272181262 0.842715118
2.424765533 1.380255359 0.705897266
2.444825376 1.262039039 0.840961311
2.423924819 1.369947726 0.704425627
2.449536721 1.254968506 0.84125361
2.423903994 1.350379953 0.815369295
2.423527194 1.470377432 0.688037154
2.432233434 1.345258998 0.816779005
2.431302048 1.457239393 0.802582857
2.446838762 1.590151505 0.67853803
2.452504524 1.587036486 0.797070371
2.448169383 1.197899072 0.833069058
2.42041187 1.290637831 0.806065307
2.445559583 1.294426765 0.813113796
2.454376118 1.41032267 0.801493163
2.434377239 1.519061981 0.667213925
2.442786764 1.517696232 0.784698411
2.438606673 1.138073782 0.822546098
2.440339239 1.244124183 0.804937529
2.432803645 1.348715914 0.787599143
2.437372488 1.46947229 0.661778397
2.440964841 1.465152449 0.776801395
2.4330866 1.09036518 0.814946204
2.442770355 1.198515466 0.79958068
2.440477164 1.304436599 0.78351265
2.449796768 1.419797693 0.772589669
2.426980432 1.052057581 0.808515463
2.442147112 1.276571004 0.780243513
2.436610045 1.140335102 0.790558622
2.440975119 1.36510078 0.763113249
2.440814724 1.228577845 0.773705123
2.437188115 1.095352489 0.785201774
2.44379561 1.317881313 0.757585334
2.437723578 1.180509116 0.766894339
2.450882531 1.273567881 0.753636882
2.44134463 1.230801149 0.746003078
2.445394327 1.214082198 0.744950161
2.575681299 0.792769058 0.823715302
2.636945897 0.785130565 0.840961311
2.732847025 0.777305383 0.868437978
2.805362402 0.770093894 0.889191659
2.810577929 0.745667386 0.651944796
2.619266497 0.791696445 0.804091737
2.91425293 0.753141202 0.794152024
2.950084937 0.744052219 0.682135503
2.966101586 0.737485985 0.806397202
2.989009427 0.73345209 0.812009576
3.034568899 0.735721702 0.70007495
2.742097737 0.755899809 0.719632561
3.021033212 0.712842476 0.576076013
2.784536247 0.758414271 0.848074304
3.147984584 0.722435908 0.724140027
3.245357959 0.734308642 0.746017318
2.907397559 0.763204171 0.883316744
3.260589151 0.727425828 0.493497293
3.340436059 0.733265986 0.902317886
2.896834322 0.750237709 0.639604977
2.63910939 0.78289071 0.779426215
3.369005402 0.729757039 0.639760058
3.559165803 0.757185483 1.112220318
2.942860215 0.743630085 0.767951483
3.488282956 0.733214978 0.799179297
3.074342728 0.756816688 0.930400657
3.46026368 0.716436604 0.521993616
3.708496461 0.754626411 0.998493734
3.022040788 0.73338936 0.664687506
2.744387516 0.768522266 0.806941747
3.610200223 0.724211342 0.683371763
3.105814903 0.734314123 0.807440513
3.50844067 0.692798985 0.395573061
3.852575496 0.748271717 0.879906694
3.134969938 0.729847591 0.56489819
2.816366153 0.760795595 0.826011954
3.850422896 0.735602321 0.727530936
3.25711094 0.738499303 0.98143171
2.822049858 0.750780613 0.708793818
3.968710742 0.745802717 0.596522372
3.271646359 0.731249015 0.84815591
3.840196925 0.709461708 0.431964021
3.463965785 0.763083915 1.042330727
3.31010965 0.727918638 0.594802555
3.769243791 0.681479913 0.142394063
2.888797752 0.739008871 0.607092967
4.090325188 0.729746514 0.613766292
2.983452328 0.757024844 0.871508
3.412193252 0.72894561 0.745787731
3.93283334 0.686163828 0.148412284
2.970827347 0.744127671 0.867149112
3.481400323 0.732569336 0.76041924
2.68798273 0.772404276 0.763113248
2.979210856 0.732991256 0.624649395
3.441008684 0.711361745 0.484388316
3.044315764 0.740293243 0.760449705
3.546717605 0.723100891 0.635251219
3.694330381 0.742806815 0.953378256
2.749825624 0.762847712 0.778644013
3.115525427 0.736186548 0.651782027
3.680671701 0.725649233 0.51716342
2.793091198 0.765629547 0.79022627
3.134947213 0.730628206 0.655373146
3.73928596 0.725294421 0.525084043
3.508676401 0.667751088 0.229215722
2.825500345 0.752523715 0.679896898
3.186869872 0.721264828 0.541277753
3.682059771 0.689581765 0.377011901
3.245196419 0.726147468 0.807152269
3.395449767 0.748837013 0.843948184
3.264464322 0.717798779 0.553698406
3.910430088 0.70754386 0.399943059
3.372741665 0.731691129 0.702655724
3.220700794 0.696058832 0.422223646
3.846748934 0.683286137 0.250734712
3.501279983 0.752427278 1.013989682
3.431823781 0.722489121 0.714027514
3.542446948 0.734435719 0.736571542
3.543723411 0.723368173 0.736372045
3.028429211 0.725290329 0.603452645
3.385778751 0.676257303 0.315066801
3.731994307 0.739396861 0.923436878
3.067031179 0.722163527 0.491446757
3.168749155 0.744375861 0.888149068
3.748856341 0.72834741 0.632634744
3.128742737 0.71893266 0.622096557
3.627636174 0.689907015 0.336967901
3.223808442 0.730371735 0.640550156
3.660081549 0.684449116 0.339785055
3.269556981 0.732534735 0.779095716
4.144804134 0.76351143 0.540044624
3.25629399 0.71419266 0.519956495
3.827475182 0.69009395 0.21267338
3.37047078 0.73105213 0.668325742
3.91136021 0.694243509 0.362504051
3.376159713 0.723851416 0.802876242
3.871970449 0.673612798 0.214912041
3.404881458 0.714001481 0.542610195
3.593191915 0.747352316 0.853381581
3.635029886 0.748658647 1.012658346
3.681747808 0.746513336 1.025030362
3.414391072 0.67965637 0.284692191
3.434065689 0.67262632 0.28615927
3.786594649 0.739220588 0.897092469
3.793343979 0.725787132 0.74841829
3.569445894 0.665090378 0.296917759
4.125586919 0.733799518 0.653567159
3.757045864 0.63814869 0.033057289
2.456858561 2.359076654 0.443748927
2.446763518 3.308254955 0.537689805
2.401973915 3.037425754 0.356288134
2.4359753 4.421486125 0.467759566
2.422715128 3.808444002 0.255323135
2.412382904 3.292180301 0.081749785
2.427218368 4.108740693 -0.075107872
2.416253083 5.412408287 0.131210128
2.445956608 5.459722902 -0.084822808
2.411357612 5.385156993 -0.298843012
4.94692579 0.819157858 -0.735885751
4.989241844 0.747725449 -0.740387034
5.874860363 0.846662072 -0.649629723
5.886289487 0.829883254 -0.650608909
5.8868381 0.811549007 -0.650391292
5.879879996 0.773856188 -0.64908577
5.861512034 0.534728827 -0.644189845
5.844310757 0.515085238 -0.642122697
5.61745701 0.685352265 -0.673105128
5.852315142 0.479621498 -0.642666708
5.384607983 0.789446863 -0.699958149
5.892707005 0.392038823 -0.646365831
5.607875918 0.544885724 -0.670152432
5.589902081 0.491249728 -0.667435891
5.158578486 0.786517258 -0.722691779
5.904264506 0.229318394 -0.646692227
5.407058577 0.590396509 -0.699575427
5.184229361 0.74167101 -0.725298289
5.185499686 0.725625224 -0.725161081
5.181812768 0.708907348 -0.724337999
5.936900959 0.139424844 -0.649956118
5.612218291 0.302841707 -0.66849888
5.93296308 0.084706202 -0.649412108
5.932497285 0.030092038 -0.649303328
5.665816465 0.218633582 -0.674404329
5.643636153 0.200439442 -0.671687848
5.929540726 -0.024498164 -0.648976933
5.180117952 0.531338602 -0.721182708
5.677006733 0.149323819 -0.675467319
6.139723527 0.593668969 -0.625580119
5.421572185 0.307209505 -0.698427322
5.17342324 0.466573944 -0.719399337
6.1697056 0.539301191 -0.628102647
6.170339725 0.520286666 -0.628001737
5.206130714 0.421256042 -0.723377709
5.95740464 -0.189170492 -0.652349662
5.435228265 0.207704926 -0.699575426
6.188167611 0.445384991 -0.629212545
5.421531005 0.17387419 -0.69766194
5.964565459 -0.262700149 -0.653437625
5.454223678 0.141427727 -0.701744082
6.162380161 0.367576729 -0.626084613
5.698040171 -0.094905412 -0.677829511
5.205884937 0.276837846 -0.722005849
5.966780754 -0.354573729 -0.654199254
5.690969204 -0.147190707 -0.67712087
5.42714027 0.04079316 -0.698044601
5.205920878 0.21281141 -0.721594278
6.181776882 0.235653187 -0.627396332
5.98443053 -0.447838058 -0.656810354
5.697963273 -0.234877319 -0.678301937
6.21550716 0.17966755 -0.630625116
5.697406716 -0.269881924 -0.678420072
5.239655429 0.117640625 -0.725847011
6.003588245 -0.541995052 -0.65974791
5.995958243 -0.559856728 -0.659095119
6.23344868 0.08452128 -0.632239508
5.990431815 -0.596439738 -0.658877503
5.440826973 -0.159457346 -0.700085703
5.265696478 0.021275832 -0.729276662
6.232026987 0.008018348 -0.632037746
5.707588615 -0.428560931 -0.680782265
5.469180495 -0.227490453 -0.704040233
6.227857308 -0.049308533 -0.631634104
6.010781819 -0.729130941 -0.662685406
5.710802723 -0.499348033 -0.681845254
5.24909292 -0.091528748 -0.727081721
5.699721892 -0.533638942 -0.680900342
5.459116601 -0.327824377 -0.703402404
5.253969151 -0.139994546 -0.727904801
6.26613559 -0.184233456 -0.635771024
6.001610437 -0.85916574 -0.663555812
5.443800572 -0.394003879 -0.70199919
6.016050957 -0.917814914 -0.666058135
5.730270119 -0.678729193 -0.686333424
6.678213029 -0.56381149 -0.613583485
6.281600205 -0.319812801 -0.637889909
5.72181022 -0.731188742 -0.686097209
6.67174987 -0.625159342 -0.613492291
6.014793753 -1.03125093 -0.667907726
5.470323413 -0.548102178 -0.707101883
6.279926446 -0.416393234 -0.638293551
5.720733914 -0.820421384 -0.687396413
6.662365234 -0.727533273 -0.613583486
5.752910366 -0.861093483 -0.691884524
5.465213464 -0.632404187 -0.707612101
6.667253852 -0.79022772 -0.614677529
6.312833949 -0.535447097 -0.642531322
5.70858392 -0.926218503 -0.687868839
6.666613234 -0.852442172 -0.615315717
6.317543981 -0.594458236 -0.643540311
5.705689759 -0.979727975 -0.68857748
7.034922656 -1.226027198 -0.586466245
6.664525631 -0.935433387 -0.616136292
6.326591136 -0.673730507 -0.645255612
6.000613157 -1.334854263 -0.672803592
5.704629802 -1.069879075 -0.690349108
6.661404586 -1.018501466 -0.616956811
6.661199887 -1.039394173 -0.617230336
6.667814394 -1.061391095 -0.618142049
5.970729049 -1.424665367 -0.671824407
6.668053761 -1.103422113 -0.618780236
5.956082065 -1.459854415 -0.671171617
5.721156632 -1.200700347 -0.695309705
7.046446635 -1.497182019 -0.591622881
6.64910896 -1.184293084 -0.61832438
5.944456481 -1.534574105 -0.671933186
7.078101326 -1.59493248 -0.595879189
6.665377365 -1.271771238 -0.621241849
6.313434731 -0.987655563 -0.648080814
5.95664424 -1.635578732 -0.676067542
7.070599609 -1.684674524 -0.596943251
6.296225342 -1.044418585 -0.647273647
7.068337359 -1.753038008 -0.598089151
6.31182433 -1.106790924 -0.649897026
6.650445108 -1.481695523 -0.623794656
7.118632095 -1.905263814 -0.605210237
7.531614109 -2.338412003 -0.572074959
6.301242293 -1.244968929 -0.651410508
7.493356735 -2.377041632 -0.570266196
6.650113103 -1.610655486 -0.626438658
7.520451011 -2.462044539 -0.574028382
6.27362037 -1.339816253 -0.650603341
7.48896787 -2.528285233 -0.573377261
7.047294854 -2.119859155 -0.604391746
6.656346655 -1.76431543 -0.63045017
6.26784475 -1.439453946 -0.652217732
7.054028677 -2.216637806 -0.607256524
6.667772975 -1.855209003 -0.633641164
6.243907814 -1.514854242 -0.651612329
7.455615965 -2.748567936 -0.576415965
6.982298962 -2.312360545 -0.604064338
6.620382779 -1.95191827 -0.631908934
6.229567726 -1.612946367 -0.652621316
7.420951494 -2.865841597 -0.577067087
6.590221286 -2.031253546 -0.631361883
7.396114803 -2.934756496 -0.577211807
6.56745132 -2.090614108 -0.630997221
6.93709933 -2.536061269 -0.606601707
6.250530554 -1.803905002 -0.659785257
7.370496881 -3.056266411 -0.578803548
6.563879662 -2.200921978 -0.633823496
4.792711932 -1.804947406 1.094644238
6.91971903 -2.650728891 -0.608566158
6.224027719 -1.900151974 -0.65998702
7.385907554 -3.196296809 -0.583795735
6.902448282 -2.71722462 -0.609220974
6.500677493 -2.313688428 -0.631726603
6.151897968 -1.960977396 -0.654841112
7.359648263 -3.319877675 -0.585676799
6.496079937 -2.402267961 -0.634097021
6.862731745 -2.873289569 -0.61102169
6.101570221 -2.069407781 -0.653428542
7.303344082 -3.430258186 -0.585315058
5.024747191 -2.366549138 1.030805628
6.464038499 -2.503788203 -0.634644072
6.847075889 -2.990986925 -0.613640956
6.834720682 -3.060804017 -0.615032426
5.144889197 -2.307902427 0.989608999
6.421670618 -2.647333921 -0.635920446
6.841586894 -3.139791812 -0.618224672
6.821972451 -3.156163504 -0.617324285
8.017444587 -4.096070285 -0.323837837
6.828515712 -3.184660797 -0.618797593
4.699375887 -2.412044584 1.393656436
5.519300708 -2.833495468 0.457672224
5.516504172 -2.858239823 0.004229054
6.401346148 -2.754579148 -0.638017397
5.479274286 -2.852523452 0.683292548
4.876121218 -2.557890736 1.234538357
5.470473044 -2.874544529 0.22973257
5.443860969 -2.876679958 0.909543138
6.782448993 -3.290770265 -0.619125001
5.45318515 -2.906098137 0.455833004
8.099754425 -3.986753181 -0.408842382
8.095538752 -4.015579246 -0.409249541
5.434570592 -2.957646807 0.684391956
4.6913152 -2.5721526 1.199534694
5.034092805 -2.780211806 1.067300835
5.014369873 -2.789429578 1.064928573
5.008361515 -2.806242132 1.065476098
5.480179794 -2.812490098 0.849147641
5.084814445 -2.392860991 1.144159783
5.488430815 -2.840217144 0.621944463
8.068962756 -4.569511097 -0.333543291
4.798904927 -2.497296899 1.156305481
5.480623824 -2.858501738 0.39669242
7.169618076 -4.09428352 -0.598916957
4.704147312 -2.692973023 1.215286296
8.106627798 -3.903330212 -0.494684988
4.682692997 -2.254386211 1.261440751
5.452384183 -2.885491484 0.620842969
5.446139744 -2.903609849 0.621143376
5.023748346 -2.458944997 1.138773192
8.075494682 -4.738261463 -0.336778422
4.766057224 -2.573867341 1.157768541
8.078988638 -4.77369042 -0.337533286
4.779613581 -2.600160265 1.162994078
8.07461028 -4.804586315 -0.337964644
5.004408769 -2.506833781 1.139571181
5.383060764 -2.955379968 0.618039167
8.062827504 -4.066723936 -0.496496613
5.404950657 -2.99369751 0.170426906
8.057161114 -3.734408159 -0.573188063
5.496918961 -2.801303502 0.790557224
8.054707471 -3.763333969 -0.573832151
5.485651756 -2.816795353 0.790175933
4.864801854 -2.509789343 1.328664179
5.063174005 -2.382933459 1.084388397
5.472579063 -2.831332973 0.789540428
8.034169473 -3.813969743 -0.57402539
4.782654036 -2.264871856 1.230472988
5.242863094 -3.241009961 1.143940608
5.462107804 -2.847192318 0.789286215
8.010728327 -3.83300084 -0.573188064
5.262945654 -3.275783618 1.150509757
5.450712722 -2.862552825 0.788904924
8.016907672 -3.866228936 -0.574476239
5.255369977 -3.2934808 1.151057164
5.458237983 -2.890464644 0.563612418
7.984365292 -3.880772782 -0.572994825
5.449344059 -2.907196539 0.563612417
7.967044822 -3.90261643 -0.572608349
5.101743561 -2.982707606 1.037144778
5.440640557 -2.926478934 0.33782035
8.310248027 -5.296550902 -0.354463866
5.079361053 -2.989614614 1.259770921
5.407536992 -2.921435732 1.018164441
5.439537537 -2.947438083 0.33831176
8.309939809 -5.332275767 -0.355146845
5.081942634 -3.012164428 1.26269727
5.402881082 -2.940369983 1.018981502
5.426800111 -2.965060823 0.111720743
7.964871329 -4.023487917 -0.575957712
8.844098412 -5.790633596 -0.380237182
5.297206845 -3.207012753 1.086754914
5.197411969 -3.167430652 1.300948192
4.909366071 -2.750407866 0.932200596
4.997633591 -3.066747127 1.253291301
5.214514496 -2.942418542 0.991852327
5.477513808 -2.85891674 0.732611777
8.077301554 -4.612391948 -0.169827474
4.843879462 -2.535064613 1.271239587
5.412993923 -3.368571159 1.118906375
5.467838185 -2.875245822 0.732494
8.067447129 -4.63964357 -0.169918744
4.842109995 -2.553093497 1.27282495
8.035511234 -5.051868376 -0.08515152
8.056668201 -4.671279536 -0.512032683
8.734192489 -5.990521742 -0.380956103
5.03737313 -2.9434668 1.187851301
5.422291309 -2.911654039 0.959931577
5.430235719 -2.926674149 0.278824498
8.108714282 -5.172756226 -0.435579774
5.031697035 -2.960895299 1.188649288
5.414201962 -2.928745829 0.960085655
5.447569089 -2.957619455 0.280179103
8.108777104 -5.207865747 -0.436439362
5.004886325 -2.96582779 1.184459677
5.406059005 -2.945815397 0.960239793
8.669680006 -6.064354473 -0.380560687
5.133957281 -3.065457008 0.990544842
8.660839462 -6.097828215 -0.380992045
5.207384938 -3.67871266 1.429465454
5.091121721 -3.322022935 1.066876288
5.056536324 -2.811051811 1.121105453
8.061104635 -4.908120364 -0.518894965
5.124900051 -3.124390182 0.994303747
8.075892621 -4.553973905 -0.25864957
4.902008078 -3.007405256 1.170893421
8.066229584 -4.58119721 -0.258789015
4.887756735 -3.019340339 1.169696441
8.563051766 -6.22761011 -0.380848249
5.067675118 -2.899217068 1.131378669
8.059516159 -5.04375148 -0.522737796
8.062589117 -5.080164157 -0.523945564
5.170345202 -3.821587947 1.44149808
8.028393626 -5.511252942 -0.441008684
4.964925204 -3.153660311 0.974365339
8.526993588 -6.357265021 0.007239695
8.05398717 -5.144051076 -0.525427813
5.01260548 -3.203722965 1.211193316
8.516248556 -6.389997583 0.007247183
8.044046048 -5.172516661 -0.525812084
7.847298892 -4.686059819 -0.589934763
5.017666449 -2.99452078 1.132329841
7.821767622 -4.7034276 -0.589097437
5.732362869 -4.374538698 1.33827738
8.056411303 -4.874590513 -0.262693149
5.232971452 -3.719171415 1.372224382
5.020684257 -3.298239604 0.99512081
8.025594375 -5.729489536 -0.446573314
5.266550586 -3.209155649 1.195110222
8.549849424 -5.679410636 -0.187407163
5.411588997 -4.209120474 1.537102023
5.286172336 -3.807136899 1.14327931
8.037569374 -4.96481847 -0.263557625
7.808006157 -4.859766471 -0.593606171
5.029695203 -3.961854992 1.188282291
8.515425035 -5.770200008 -0.18780878
5.011213033 -3.974691703 1.687541072
5.214722467 -3.827937121 1.382675459
7.788167744 -4.913973717 -0.594379064
5.084153438 -4.055549298 1.458124797
5.044194161 -3.727715538 1.100756402
7.780636183 -4.942660369 -0.594958779
5.335734808 -4.283083456 1.534039181
5.551971909 -4.129364489 1.214323755
7.771320533 -4.970271557 -0.595409629
4.969603798 -4.014316352 1.432309548
5.531391838 -4.140475815 1.212595102
7.761908793 -4.997872062 -0.595860537
4.944806996 -4.021855118 1.681673589
5.164230434 -3.889288451 1.381839327
4.952500595 -3.751928417 1.57195812
5.470498101 -3.836881737 1.360422959
4.9323732 -3.200787913 0.917089846
8.416761552 -5.932299972 -0.188009588
4.944050149 -3.769456041 1.572939212
5.2129432 -3.680150889 1.299175013
4.963888946 -3.242925009 0.924795177
5.038674481 -3.577557856 1.499906893
4.98286351 -4.126653071 0.955721775
4.895740374 -4.080320926 1.182807964
4.727208062 -3.675139195 1.279836944
5.614924302 -4.044111043 1.14629297
8.397606486 -6.074401191 -0.189232675
4.87136326 -4.110917613 1.182990472
7.77191682 -5.243772394 -0.605135617
5.087197635 -4.322449477 1.761267366
4.557046865 -3.587926333 1.239704898
5.634635146 -4.111050038 1.155445024
5.727966971 -4.863451488 0.831165176
8.385178141 -6.144133288 -0.189798591
5.135090596 -3.480562545 1.442459529
4.840067197 -4.135620828 1.181530635
4.791425656 -3.539155575 1.212789407
4.981827432 -4.282807699 0.970481376
8.187071276 -6.547168807 0.289154977
7.742232747 -5.328092643 -0.606617031
4.96532162 -4.298210407 1.732695285
4.645870518 -3.727634858 1.273148348
5.5435226 -4.123286775 1.144495175
5.659659402 -4.895806289 0.827756982
4.760337725 -4.143900098 1.415026466
5.162226945 -4.169223861 1.164540764
7.718398918 -5.381776216 -0.607325551
4.850178035 -3.938896716 1.580787953
5.121869084 -3.856597155 1.305359593
5.491933634 -4.809946469 0.807527523
5.190135243 -4.241471648 1.695821338
5.131880761 -3.88886372 1.31094574
5.48684536 -4.83531628 0.808956783
7.697457443 -5.437671238 -0.608291742
4.92738982 -4.372296069 1.73805255
5.206183041 -4.283273452 1.440992404
5.61561917 -3.971092866 1.072737779
5.485371131 -4.863996749 0.810935776
5.048044009 -3.582139925 1.439288801
4.767749017 -4.254313629 1.185910027
5.720750491 -4.74067342 1.024221205
4.638128033 -4.164281249 1.397524634
4.931200065 -4.109199847 1.126512165
4.848634449 -4.062641366 1.600409918
4.768889476 -3.706792835 1.229747288
