x y z
-4.470317911 1.634643505 -0.261698271
-2.662494023 1.20426232 0.323230903
-2.783423921 1.13995006 0.193030502
-3.173189615 1.168357415 0.061089659
-4.211297491 1.382041678 -0.123649833
-2.659691249 1.212837454 0.323340844
-2.803894246 1.158391402 0.194695662
-2.822828408 1.049201175 0.054406283
-4.189010227 1.388977793 -0.123119978
-2.667697744 1.226388721 0.324770104
-2.812107471 1.05504686 0.054261779
-3.075557425 1.28597191 -0.150969025
-4.390081525 1.654155032 -0.429508429
-3.728891122 1.733178299 0.002798949
-2.678688772 1.135196612 0.29279757
-4.209154926 1.438789824 -0.124096019
-4.421617939 1.52822229 -0.301955906
-2.930426961 1.390981379 0.479176085
-2.67806902 1.154368352 0.293498522
-3.141218591 1.095315644 -0.092807089
-2.94275403 1.40810054 0.605454605
-3.237462516 1.406076556 0.486573304
-2.543318776 0.996715724 0.249272632
-2.874635937 1.009951243 0.13771898
-3.664966842 1.758475391 0.002766958
-3.05913235 1.334595003 -0.151149985
-2.880847385 1.389170478 0.472453902
-2.676403004 1.173175625 0.294099336
-2.543861347 1.006969233 0.149608492
-3.053291921 1.083613772 0.028104335
-3.166224324 1.532779882 -0.126530056
-4.379810467 1.929241714 -0.393051079
-2.655050351 1.290343631 0.326529186
-2.711644895 1.19900717 0.190276588
-3.164873512 1.136340866 -0.09381101
-2.689000845 1.318512129 0.220927448
-2.744718949 1.225435563 0.082911134
-3.132239681 1.135484126 -0.092946527
-2.584693688 1.275814911 0.318833212
-2.702416366 1.214804641 0.190148498
-3.187834564 1.164508262 0.029440159
-2.778201389 1.382128705 0.575893561
-3.104509277 1.405322762 0.469776117
-2.680703033 1.098283669 0.264358059
-2.663508709 1.327390673 0.110631239
-2.56793116 1.2871962 0.317733775
-2.711249845 1.238828793 0.191301296
-3.046486515 1.261814237 0.059572352
-3.167543078 1.451865726 -0.157800403
-2.703849368 1.365899657 0.562207858
-3.35406245 1.396811819 0.465564478
-2.577274387 1.313937685 0.884222421
-2.575495265 1.321922356 0.763794127
-2.98072086 1.391898824 0.703147402
-3.101233577 1.321127175 -0.185335303
-2.576807535 1.333683069 0.886853191
-2.997689777 1.284923635 0.058922077
-2.570126527 1.338014059 0.42802892
-2.679593209 1.273946269 0.298605448
-2.704283996 1.167648543 0.161074831
-2.580427921 1.35569591 0.890945465
-2.569329159 1.347634004 0.320922117
-2.727583104 1.307504734 0.194119269
-2.940256055 1.28171788 0.057946665
-2.561374479 1.353669594 0.649538259
-2.88783097 1.392436996 0.562651035
-3.189693725 1.397798354 0.446245391
-2.588226695 1.369132333 0.215998337
-2.749929844 1.330383981 0.084262193
-2.55673267 1.3612675 0.537573618
-2.623556371 1.276021312 0.402177507
-2.695807758 1.192419348 0.268992709
-2.56059604 1.0251472 0.124669542
-3.406997291 1.81862746 0.00262878
-2.557742958 1.371893393 0.538668494
-2.577821955 1.263571519 0.39575907
-2.719421752 1.212853434 0.271718994
-2.610236318 1.054324034 0.1272433
-3.396117428 1.82622982 0.002624696
-4.245859185 1.904755999 -0.426043909
-2.52405941 1.363643969 0.423791001
-2.608004777 1.289324321 0.292797571
-2.746149748 1.236041422 0.164678542
-3.4159794 1.39240122 0.031999042
-4.21277514 1.905461345 -0.42330877
-2.556358733 1.391242577 0.429928671
-2.698323776 1.223348568 0.270355866
-2.824544409 1.161096262 0.138035049
-4.38688946 1.808707944 -0.306271401
-2.571078168 1.410662177 0.773743336
-2.662254283 1.333916786 0.636469654
-3.124568339 1.426784821 0.440144647
-2.572166481 1.411551418 0.216439754
-2.601491356 1.308189872 0.080319294
-2.556524069 1.411908466 0.654788833
-3.056633831 1.405173478 0.557293818
-3.395716153 1.416271589 0.436246636
-2.760952054 1.273391485 0.166261985
-3.387337291 1.417220974 0.03185158
-2.568101408 1.430715466 0.898545414
-2.609766453 1.326968092 0.740726109
-2.569381498 1.429137804 0.434312711
-2.705452083 1.37906928 0.305614954
-2.76699212 1.28648665 0.166862606
-2.562284067 1.43567682 0.658507984
-2.629922397 1.349705809 0.407503451
-2.745338191 1.285508323 0.276626304
-2.731985594 1.533269689 0.11646371
-4.328518826 1.84889593 -0.477358001
-2.56108735 1.445348248 0.54578505
-2.614329742 1.351852692 0.405728155
-2.857348246 1.224376956 0.254209839
-2.755843579 1.30333972 0.055074623
-2.576550009 1.340065169 0.853431153
-2.562999866 1.456635636 0.435481796
-2.732078899 1.555442544 0.11687236
-2.575253056 1.349444759 0.735575371
-2.916486679 1.39439015 0.658166162
-2.880404216 1.379919389 0.409259516
-2.761312633 1.326719729 0.055345571
-2.581465358 1.490501803 0.911114486
-2.573672832 1.35869692 0.73631119
-2.568119025 1.480644966 0.550164444
-2.832389535 1.367616783 0.403031665
-2.574949301 1.485900618 0.219308943
-4.16971951 2.211344483 -0.042342517
-2.586682388 1.502966556 0.789304975
-2.547567186 1.355667174 0.616821638
-2.551205724 1.35914647 0.398490305
-2.727087316 1.328340589 0.27680804
-2.728013405 1.58655081 0.11731815
-2.587900735 1.514313662 0.791090728
-2.834879824 1.387572248 0.642604819
-2.962871137 1.45310498 0.422859151
-2.667347577 1.561114496 0.227990062
-4.176324908 2.247787782 -0.042548846
-2.56873676 1.386471074 0.738518649
-2.78842709 1.37545557 0.633028616
-4.169409187 2.2605901 -0.042548846
-4.162744632 1.884790736 -0.46343379
-2.554829784 1.515057233 0.551259319
-2.553378049 1.39062423 0.400811876
-2.574530948 1.528076787 0.220853881
-3.408650202 2.028228194 -0.142669817
-4.116214567 1.8789616 -0.458893286
-2.631336912 1.314427918 0.832822737
-2.571099089 1.535386553 0.671415608
-2.610599558 1.3085698 0.483750628
-2.572042299 1.412089349 0.295300965
-2.578919729 1.550810191 0.674697201
-2.630348941 1.328582169 0.488163221
-2.573792963 1.42334413 0.296001916
-2.572955537 1.429795529 0.864990698
-2.578268239 1.562562032 0.222398833
-2.582697344 1.445597333 0.748820121
-2.604800071 1.334939471 0.59592073
-2.561034585 1.561347375 0.443080793
-4.145574172 2.330650059 -0.042665467
-2.580013446 1.454508335 0.870347545
-2.573603835 1.32774222 0.702897069
-2.589104468 1.589563093 0.563850145
-3.347357122 2.061930979 -0.141411712
-2.573286331 1.335138385 0.820835766
-2.595157045 1.605640251 0.225120873
-2.582994247 1.60771764 0.682135503
-3.151867268 1.966456441 0.00252872
-2.582828455 1.619696802 0.804356341
-2.563922056 1.477472618 0.632498254
-3.373076687 2.120844906 -0.143316855
-2.58603788 1.500019872 0.878523754
-2.56655543 1.364241692 0.705491657
-2.870889835 1.394443308 0.618481894
-3.376686879 2.13759777 -0.143748199
-2.584949341 1.510006202 0.757404681
-2.810165703 1.375619981 0.606306334
-4.164003761 2.244097876 -0.086365019
-2.586989328 1.52186209 0.759366923
-2.755747556 1.359477688 0.595462403
-4.149190858 2.252569013 -0.086200727
-2.587806378 1.533048872 0.883880662
-2.577719093 1.659828071 0.687386077
-3.266686592 2.108386887 0.002646477
-2.576046187 1.410099395 0.712803657
-2.524812438 1.508605055 0.405455017
-3.3351212 2.169066447 -0.143101176
-2.595622108 1.559273893 0.889801369
-2.577291855 1.682012964 0.690011363
-3.323434437 2.176003847 -0.142885496
-2.596572698 1.57070583 0.891774939
-2.577827771 1.693662646 0.691542783
-3.282220388 2.161462986 0.002675066
-2.581524338 1.4415921 0.837181684
-2.596083586 1.328377662 0.678085038
-3.286408938 2.178705562 0.002683915
-2.590768156 1.588989631 0.768932575
-3.281372822 2.189888075 0.002685276
-2.592958716 1.739094936 0.82374454
-2.55899054 1.5811262 0.642949276
-2.582575169 1.467745987 0.492085561
-2.737195489 1.837427935 0.122556236
-3.400864761 2.111232964 -0.181280446
-2.599915529 1.616637054 0.899669275
-2.573278018 1.470779343 0.719408033
-2.578955411 1.351944129 0.56426247
-2.570964922 1.734496843 0.458132694
-3.241366605 2.192054724 0.002663494
-3.207789545 1.846759253 -0.203506509
-2.577851013 1.355542478 0.794701265
-2.587061756 1.757128006 0.701168815
-2.564853192 1.607076033 0.531190988
-2.605555457 1.503850149 0.385491985
-2.839895223 1.931750652 0.127682862
-3.411520166 2.146958762 -0.182547194
-2.580095193 1.626349163 0.771630581
-2.579128874 1.496456044 0.607092966
-2.586119046 1.378485271 0.457080897
-2.560881083 1.750654458 0.343130481
-2.598318018 1.642021189 0.197257454
-2.695191551 1.570721671 0.056357106
-4.180625331 2.240510431 -0.132322607
-2.572038234 1.372697061 0.795490966
-2.592307913 1.784032574 0.705544273
-2.574066576 1.634929204 0.535166736
-2.516669973 1.47320777 0.373671729
-2.601807858 1.657332911 0.085089372
-2.605568796 1.529327634 0.855434536
-2.572960812 1.387055247 0.679670402
-2.59198393 1.79555285 0.585199814
-2.584986405 1.65422476 0.423071617
-2.856791453 1.551022437 0.146930342
-3.396785809 2.179410682 -0.036206439
-3.133336248 1.855458846 -0.200212637
-2.593061083 1.53532891 0.731437502
-2.584849989 1.802371769 0.584834855
-3.013289081 1.647978532 0.155238633
-3.456570991 2.417836955 -0.151728218
-2.562682909 1.398159518 0.796543883
-2.580570484 1.811179329 0.706856888
-2.572612764 1.805393341 0.464270333
-3.412689414 2.219292246 -0.036520421
-2.59025685 1.555212503 0.733324466
-2.578552566 1.423142071 0.570730766
-2.561405723 1.809282232 0.463247398
-3.288757862 1.824937262 0.170003926
-3.399213684 2.406774706 0.002835025
-3.437431719 2.252646997 -0.186121222
-2.599894211 1.849817845 0.841857256
-2.570764558 1.688211111 0.657371751
-2.567130641 1.825157232 0.465293298
-3.406522333 2.245142864 -0.03660116
-3.356803516 2.043838471 -0.216078127
-2.595531905 1.715049672 0.787082786
-2.578197834 1.570870061 0.614674142
-2.56715039 1.837054309 0.466316233
-2.698320932 1.789471808 0.089308002
-3.383614487 2.429183236 -0.14982309
-2.573931595 1.445564145 0.805493818
-2.58744498 1.863812538 0.714951497
-2.568700279 1.710022928 0.541562435
-2.545297631 1.564305056 0.382822889
-2.586170196 1.464574113 0.243043833
-3.42734874 2.472456051 0.157105279
-3.417628388 2.282664317 -0.036870286
-3.36459114 2.076984817 -0.217395673
-2.592209484 1.735797918 0.789290244
-2.566843419 1.585630003 0.614275149
-2.58829624 1.472813336 0.464478041
-2.553418778 1.851023376 0.34884749
-2.564422867 1.721473162 0.198218117
-2.581131061 1.601310574 0.054875927
-2.607763576 1.485685688 0.818918692
-2.583054268 1.884830164 0.716920476
-2.570407058 1.734014486 0.544155296
-2.575218425 1.604546288 0.388796557
-2.577999411 1.480911479 0.243125343
-3.438739312 2.512896217 0.158331212
-3.424260923 2.317603732 -0.037094556
-2.59113656 1.758202764 0.792233579
-2.558726674 1.602390196 0.614674142
-2.591190779 1.495581989 0.466635521
-2.546018634 1.869597457 0.349397223
-2.590943119 1.762433593 0.201100135
-2.596647782 1.633086859 0.055417823
-2.603855559 1.637732858 0.870963155
-2.589040179 1.499995455 0.695750601
-3.408797908 2.523246753 0.157662522
-4.944273808 3.665845314 -0.221391638
-2.588269763 1.926583321 0.851296249
-2.583066673 1.776834128 0.670122078
-3.401842037 2.534289925 0.157699671
-3.320340989 1.953740354 -0.107475517
-2.599323497 1.52342888 0.822077501
-2.590193711 1.939193554 0.725452643
-2.537322298 1.499253418 0.241006249
-3.4266561 2.571123223 0.002916026
-4.672983121 3.25022759 -0.257782873
-2.587208779 1.950577446 0.854867759
-2.582545261 1.799919074 0.672839336
-2.903387136 1.729652379 0.152755176
-3.393224379 2.373295137 -0.037148382
-2.59912349 1.682385578 0.751486596
-2.541754368 1.522990374 0.242310309
-2.726340722 1.773590265 0.058759509
-4.86312264 3.699017761 -0.219774072
-2.595940673 1.98225956 0.861755673
-2.573050017 1.816859548 0.6732574
-2.81918315 1.703012793 0.148871963
-3.379414021 2.394648982 -0.037157353
-2.599314502 1.705231554 0.754552898
-2.569137669 1.972873999 0.358302545
-3.401978479 2.61846956 0.002922152
-4.525423668 3.23071 -0.251811084
-2.58269524 1.846636515 0.803270871
-2.566738513 1.570245079 0.246059471
-3.384152947 2.429334882 -0.037372652
-2.596895123 1.7265288 0.756911632
-2.583153891 1.584924392 0.587281963
-2.79913829 1.726265749 0.148646196
-3.378545271 2.259236776 -0.074207103
-2.607913773 1.604679761 0.835502431
-2.591751809 2.028650272 0.73792271
-3.415501096 2.679295526 0.002954825
-5.02694494 3.659058904 -0.28157961
-2.59065819 1.88860369 0.811119611
-3.421590703 2.699035405 0.162009013
-3.338843197 2.090820113 -0.109901664
-2.595376462 2.058547808 0.874000908
-2.575434282 1.890532247 0.682872346
-2.590306886 1.628680906 0.25021615
-3.387343959 2.310518744 -0.074864288
-2.608556642 1.638363473 0.840503858
-2.583650135 2.060937081 0.740985553
-3.36836036 2.496079434 0.115639933
-4.589065258 3.671778096 -0.211398637
-2.598527523 2.087149381 0.879358174
-2.602957609 1.659007535 0.252416753
-3.369318915 2.513937955 -0.037713546
-2.611475474 1.66262824 0.844715582
-2.600372069 1.66860026 0.25266128
-3.316012242 2.490037876 -0.037202206
-2.604678852 1.813547593 0.770356294
-2.848910192 2.319059629 0.136561599
-3.322319276 2.152115196 -0.110431512
-2.591755814 1.685611231 0.25282427
-3.207918575 2.629667894 0.002823454
-4.869314457 3.706864067 -0.277146008
-2.605413429 1.837897968 0.773894366
-2.562524582 2.110859399 0.244910912
-3.275484702 2.507080946 -0.037004847
-2.611867601 1.70827945 0.851559626
-2.586608878 2.142377553 0.753018119
-2.863595987 2.375166708 0.138307628
-3.336946468 2.382726069 -0.074864288
-2.594311596 2.003252363 0.82926988
-2.962936827 2.47294652 0.143471402
-3.332056473 2.394703059 -0.07491905
-2.589684584 2.012391828 0.829760427
-2.559793773 2.148459826 0.246529445
-3.302731055 2.576485362 -0.037578981
-2.61744069 1.750758489 0.732214099
-2.573865818 1.730729815 0.253639304
-3.272152197 2.380312036 0.073101671
-4.359322195 3.689895977 -0.205431601
-2.619537812 1.759567955 0.861036048
-2.598800905 2.206801014 0.764394322
-2.696538873 2.289553409 0.39128531
-3.266673319 2.579643357 0.114812755
-3.409329441 2.313902012 -0.114949164
-2.581518844 2.045382864 0.703983477
-3.372018655 2.300184024 0.184498271
-3.328189994 2.64597817 -0.038144149
-4.397244233 3.77254401 -0.420283714
-2.623047355 1.785378995 0.865774259
-2.597789769 2.233519916 0.768113474
-2.592098288 1.773995471 0.48990568
-3.034462243 2.61264775 0.148858082
-3.36879469 2.500354163 -0.076598523
-2.62551621 1.798870803 0.868406581
-2.601994301 2.251055538 0.771395067
-2.709179418 2.343536354 0.396232705
-3.385319792 2.526739067 0.076316917
-4.217852939 3.659933303 -0.200866451
-2.595206197 2.094422723 0.843740995
-2.572723055 1.924835343 0.654176107
-3.022893937 2.635157637 0.149080988
-3.36058209 2.526384878 -0.076762823
-4.466426977 3.909200606 -0.649629723
-2.609674106 1.811645908 0.866827177
-2.607217401 2.283694997 0.777083197
-2.714189107 2.37714188 0.399091224
-3.382513407 2.557110713 0.076605925
-3.420901953 2.399216877 -0.116566596
-2.616086252 2.137912863 0.854778285
-2.571797849 1.948870577 0.65696918
-2.950475688 2.604061383 0.14629477
-3.36761332 2.762677913 -0.039077118
-4.20964158 3.725203339 -0.407767096
-2.616658142 1.840389463 0.872881518
-2.599726442 2.305476455 0.77905212
-2.707732694 2.401004799 0.400300573
-3.371522799 2.581464269 0.076714309
-3.421598717 2.4311627 -0.117096444
-2.607400443 2.157633036 0.856249925
-2.57533834 1.976546232 0.660959236
-2.70406201 2.41260923 0.400850306
-3.386554991 2.609493591 0.077238137
-3.421441591 2.446881847 -0.117347424
-2.615530387 1.863688171 0.876303541
-2.592066035 2.32725156 0.781021099
-2.557059549 2.297595595 0.253592059
-3.393885171 2.439801094 0.036258062
-4.146057778 3.733606496 -0.200686728
-2.594086774 2.014823507 0.797245678
-2.594210778 1.867594525 0.619433125
-2.556656566 2.311449172 0.254254177
-3.392054836 2.454304942 0.036318781
-4.132362296 3.74429566 -0.200578888
-4.487902644 4.076300397 -0.663555812
-2.575866926 2.172788862 0.720287136
-2.570000154 2.01138963 0.540624066
-3.269338617 2.975935337 0.164349434
-3.366820303 2.849539788 -0.039570518
-4.135060907 3.773873565 -0.406103024
-2.610754545 1.896754664 0.880515322
-2.589257735 2.368132015 0.786709229
-2.576104034 2.187169946 0.593073961
-2.570386949 2.02662072 0.419427473
-2.558302626 1.872600144 0.259263062
-3.363363892 3.080443637 0.169550356
-3.406023515 2.900701466 -0.040135682
-2.578845949 2.202525582 0.724885634
-2.575392814 2.041215332 0.544382916
-2.585755798 1.902957155 0.380670819
-2.565351342 2.362581889 0.257270501
-3.423133957 2.932196723 0.124325336
-3.391250676 2.699144545 -0.079135989
-2.595923927 2.22989735 0.865815633
-2.579130344 2.055987676 0.671532979
-2.590177615 1.916390254 0.502542402
-2.573132788 2.38229355 0.387877087
-2.616636868 2.252933072 0.221594404
-3.402740655 2.723240088 0.07873738
-3.431979584 2.551189519 -0.119299499
-4.316372243 4.012784734 -0.427518764
-2.600029728 2.084160032 0.808803375
-2.595196504 1.929426082 0.626662392
-2.568225146 2.392424506 0.518486361
-2.560134684 2.21737226 0.340862817
-2.595956787 2.088870091 0.182205661
-3.431710968 2.56410506 0.037160178
-3.866338321 3.612786533 -0.190334266
-4.277674276 3.718439521 -0.465489678
-2.602979376 1.944878096 0.755541687
-2.587398043 2.425408539 0.658190113
-2.575741215 2.243333132 0.470868611
-2.610499537 2.112291112 0.306433603
-3.418338562 2.56993311 0.193303262
-3.443804222 3.235092939 0.003216205
-4.193737872 3.664638297 -0.252218243
-2.602188657 1.952209928 0.887622581
-2.596638616 2.449080355 0.80027316
-2.574854139 2.254980297 0.600679693
-2.585930729 2.10399603 0.427180517
-2.574599175 1.945876335 0.263908767
-3.440673536 3.249693439 0.175940078
-3.434000333 3.016620832 -0.041005857
-2.5821805 2.274791856 0.735545688
-2.581962683 2.111708539 0.552554355
-2.579981916 1.960420686 0.384203197
-2.617032206 2.485441003 0.266245917
-3.435435392 3.035323635 0.126448438
-3.444485194 2.82889777 -0.081381371
-2.602047879 2.305457157 0.879550928
-2.578317431 2.120829816 0.679712704
-2.577751035 1.969091285 0.505932774
-2.574389392 2.457860168 0.393704037
-2.657134609 2.359733842 0.228062923
-3.405283125 2.812040223 0.079785043
-3.446366364 2.64491712 -0.121195791
-4.296789913 4.119245487 -0.431787441
-2.595461343 2.146713781 0.817530628
-2.573861865 1.975582511 0.628755052
-2.562615637 2.461692088 0.524916272
-2.562921344 2.289524882 0.345869635
-2.592802886 2.152681833 0.184280528
-3.422063475 2.639651718 0.037489796
-4.365304695 4.206296154 -0.218048667
-4.128116618 3.70111969 -0.45534008
-2.6052322 2.009562744 0.765053876
-2.592305256 2.505812372 0.669138651
-2.574190338 2.312369121 0.47701394
-2.567853521 2.143788868 0.30525221
-3.397456304 2.636765065 0.194386949
-3.418914389 3.311889678 0.003240029
-4.137773727 3.729204689 -0.252263483
-2.602135058 2.530802629 0.813837092
-2.575045887 2.325900834 0.608976838
-2.579182827 2.165097524 0.431501884
-2.579809664 2.012728215 0.267576449
-3.424067376 3.334858151 0.177686107
-3.439197022 3.115938327 -0.041633818
-2.593305053 2.356219769 0.748923054
-2.57716501 2.174605597 0.558601247
-2.585550095 2.027956553 0.389619472
-2.583587162 2.530176229 0.266760872
-3.423937861 3.119980971 0.12777193
-3.439590974 2.914364249 -0.08231238
-2.586574447 2.19500107 0.690685442
-2.577503173 2.03225884 0.511942948
-2.577465711 2.537504122 0.400080692
-2.563959275 2.348314541 0.223131488
-3.430246274 2.922299038 0.08141073
-3.431247746 2.717952873 -0.122116057
-4.026692262 3.980625335 -0.410733441
-2.602146512 2.220335334 0.830267664
-2.587117782 2.049580146 0.639598927
-2.580779938 2.556405963 0.536607067
-2.553112068 2.352164404 0.349374389
-2.591328583 2.219480819 0.186573802
-3.424197963 2.726088008 0.037966875
-4.310194524 4.282622627 -0.218551909
-3.979387188 3.679429529 -0.445108645
-2.597723017 2.068094781 0.772074823
-2.594648664 2.586233656 0.67990474
-2.575018044 2.568638337 0.268305824
-3.431426451 2.74908487 0.038140358
-4.036951501 4.035815467 -0.205323761
-4.323080319 3.739613594 -0.523323814
-2.595390508 2.602895347 0.82411943
-2.575101075 2.398693368 0.617619749
-2.963141275 2.569626187 0.214475228
-3.387944647 2.731356906 0.037750022
-4.012573167 4.036133503 -0.204712679
-4.313089094 3.754166709 -0.523506145
-2.591513765 2.615004191 0.825432102
-2.574197696 2.412644399 0.619175432
-2.557103342 2.582264115 0.268085137
-3.419731539 2.986534402 0.082024881
-3.420912803 2.778762202 -0.122952667
-3.914156684 3.686515971 -0.44158902
-2.599001694 2.108484483 0.778189785
-2.587984331 2.6275166 0.68446664
-3.281418786 2.678289948 0.191451957
-3.293146888 3.350578557 0.003197827
-4.340259007 4.109157402 -0.27067655
-2.579002932 2.446361514 0.759792199
-2.575866289 2.631036662 0.543913821
-3.289398068 2.701659514 0.192400192
-3.340151748 3.419323958 0.003253643
-4.349331738 4.143124381 -0.272033777
-2.58704887 2.469116075 0.764390639
-2.580597557 2.288251108 0.571348771
-2.651449139 2.186839838 0.40751678
-3.29880466 2.726375848 0.193438728
-3.25580827 3.353502392 0.003181491
-4.336600212 4.156448612 -0.272033777
-4.494816829 4.010346203 -0.551495771
-2.589073917 2.677473412 0.835058134
-2.585596062 2.483626267 0.629201171
-2.631736898 2.184182701 0.405515106
-3.412096032 3.286129532 0.130667061
-3.440480664 3.082268634 -0.0843387
-2.59224468 2.504649045 0.770452252
-2.701348905 2.810492815 0.431194406
-3.381179954 3.276409041 0.12986745
-3.43991989 3.100842534 -0.084557762
-2.584940624 2.333722496 0.709039917
-2.617622387 2.20191582 0.279720478
-3.376774366 3.060388865 0.08233195
-3.497564211 2.949522338 -0.127637637
-3.778632301 3.692461652 -0.433894984
-2.60072497 2.190476841 0.790646261
-2.587474175 2.185654133 0.528278258
-3.400001889 2.880960508 0.201430937
-3.191027886 3.368520613 0.003158348
-4.291681905 4.215652866 -0.272440937
-4.500380984 4.115605741 -0.558333616
-2.608110541 2.210410756 0.79494942
-2.583767934 2.196141683 0.528894689
-2.597632898 2.755264111 0.279341177
-3.375918333 2.879003971 0.038487324
-3.088877372 3.283544458 -0.162152578
-3.750236508 3.709970046 -0.433240167
-2.600944439 2.390227907 0.857392902
-2.609217364 2.228209088 0.664901336
-2.616921775 2.242777574 0.281839573
-3.413112143 3.151022022 0.083921516
-3.832687723 3.292970812 -0.1409675
-2.591349351 2.397878475 0.718815616
-2.686383507 2.882135934 0.435812007
-2.945860397 3.165279973 0.160745931
-3.397437766 3.396170561 -0.043096069
-4.081878528 3.798072035 -0.306549872
-4.474000849 3.873220627 -0.600153315
-2.626464235 2.835538421 0.866561512
-2.581413402 2.404689223 0.58442311
-2.582325487 2.790034098 0.280444698
-3.432311365 2.982095342 0.039441487
-3.227351159 3.494642741 -0.17110314
-3.686446083 3.714618003 -0.42980241
-2.613598187 2.446607046 0.868950603
-2.594524239 2.257284249 0.666423281
-2.582332902 2.422926569 0.453744252
-3.34337554 2.922256152 0.200708483
-3.071331504 3.343428207 0.00309028
-3.361136715 3.404458719 -0.216658857
-4.49975109 4.243595452 -0.566265504
-2.606163003 2.278364039 0.8049146
-2.603010744 2.845036951 0.715669971
-2.553176835 2.41211221 0.320519374
-3.161038672 3.217219447 0.124408052
-3.425220636 3.243450331 -0.086127704
-4.173036855 3.677817421 -0.359023508
-2.603548875 2.290208791 0.806273467
-2.60154617 2.861011257 0.717677216
-2.581800649 2.452388112 0.45628624
-2.579339572 2.838778754 0.282946036
-3.418197639 3.025488836 0.039597621
-3.199078115 3.528640641 -0.171318819
-2.587861326 2.658668611 0.793026557
-2.579538935 2.462755254 0.590796815
-2.591430472 2.302739131 0.41104913
-3.428250613 3.052551932 0.207481538
-3.131508438 3.472552452 0.003182852
-3.316450426 3.421620543 -0.215799284
-4.516519929 4.338640801 -0.573376874
-2.584236308 2.481138778 0.729389361
-2.599837521 2.322074688 0.543688977
-2.626900016 2.924440318 0.434822511
-2.873754255 3.204088762 0.160002944
-3.225379703 3.345115486 -0.041687641
-4.279222031 4.131242018 -0.327026779
-4.527761663 4.067952026 -0.617306339
-2.606525412 2.516106203 0.879328963
-2.593936424 2.327633207 0.675364752
-2.583865762 2.894344615 0.57314078
-2.674175657 2.785662098 0.388627683
-3.012710664 3.142479957 0.120079138
-3.420318039 3.319358632 -0.087022205
-4.109817702 3.712695231 -0.357477661
-2.61358783 2.356554758 0.818277007
-2.602128286 2.933173304 0.727713387
-2.582346058 2.7048749 0.51552465
-2.610463792 2.944846198 0.290302948
-3.389223932 3.306892553 0.085547196
-3.534615346 3.210681757 -0.133214978
-2.57643582 2.713511287 0.656685527
-2.592064261 2.538899057 0.464929003
-2.520400556 2.658673651 0.235107819
-3.403882135 3.107228466 0.039979285
-2.993482568 3.405412577 -0.163087165
-2.601147251 2.755653537 0.809957257
-2.591373888 2.551174475 0.602400289
-2.590944742 2.374423492 0.416700903
-2.513600843 2.667846316 0.23523591
-3.421582203 3.142684762 0.040300229
-2.599371654 2.770752692 0.812047472
-2.596151082 2.571609588 0.605342016
-2.590218328 2.388419822 0.417760613
-2.793448134 3.212351375 0.158256915
-3.235837531 3.460663623 -0.04250399
-3.979707733 3.961814811 -0.308745796
-4.536348924 4.203191891 -0.627194511
-2.598997987 2.405156187 0.686208626
-2.600021882 3.003950091 0.586877445
-2.672486201 2.870777638 0.394735968
-3.395757501 3.395601905 0.086757431
-3.44080912 3.203410748 -0.131151361
-2.579088877 2.783941044 0.666019795
-2.591514271 2.601435789 0.47052135
-2.49842696 2.701124457 0.236132542
-3.381094925 3.401749154 0.086649055
-3.417833649 3.201650948 -0.1306494
-2.579875805 2.801984593 0.668439803
-2.589801817 2.615717986 0.471665253
-2.834055447 2.866515486 0.220426812
-3.413339192 3.21322356 0.040664544
-2.62129805 2.86375718 0.829814306
-2.597630097 2.637010547 0.613186644
-2.596800556 2.454130007 0.423647884
-3.390304041 3.210540981 0.211048683
-2.783625285 3.283968222 0.00293032
-3.152059234 3.458247206 -0.211908561
-2.613815831 2.873232334 0.830232313
-2.596429336 2.652017028 0.614820943
-2.596455488 2.468928156 0.424825343
-3.38622422 3.226440152 0.211409917
-2.843761438 3.375856697 0.003004514
-3.149482897 3.476785751 -0.212451455
-2.617449616 2.895020443 0.834203713
-2.598600791 2.670576224 0.617272363
-2.589586163 2.477568916 0.424943092
-2.465760343 2.732321524 0.236196587
-3.046742045 3.141534789 0.079062516
-4.359684948 4.185550781 -0.168603269
-2.615296042 2.507748748 0.84251047
-2.602224259 3.121112329 0.754172366
-2.594777113 2.890441669 0.535462821
-2.573161867 3.088665245 0.296556309
-2.818916076 3.146301158 0.116522261
-3.218978221 3.342137214 -0.084722055
-4.27997559 4.137078407 -0.384207961
-2.592643951 2.504750537 0.698574444
-2.589199007 3.124598889 0.599445084
-2.672465527 2.997313368 0.404148763
-2.653890569 3.207564472 0.154764858
-3.233037035 3.632400959 -0.043625351
-3.242912962 3.390806774 -0.257965232
-4.477461124 4.357662864 -0.633652137
-2.597187077 2.717320436 0.765300263
-2.594726556 2.525988751 0.564801599
-2.593682024 3.149627653 0.451313894
-3.380682813 3.30125251 0.213577305
-2.783710304 3.388092854 0.002984775
-2.603073331 2.951124127 0.841101458
-2.590766481 2.728735741 0.623319255
-2.587350067 2.536970605 0.429652903
-3.412581611 3.352916269 0.216241365
-2.776465058 3.400490135 0.002988178
-2.598519646 2.964243722 0.842564573
-2.59050755 2.745281511 0.625280425
-2.59439988 2.559542277 0.432125542
-2.599017082 2.970349472 0.25329649
-2.968740568 3.156581518 0.0782858
-4.42781028 4.383443046 -0.173818079
-2.611844638 2.58249659 0.854061015
-2.602861892 3.221075442 0.768587987
-2.596962005 2.98370414 0.545295323
-2.604637981 2.782236095 0.34778215
-3.401860211 3.383655206 0.216873531
-2.722907839 3.376981983 0.002952783
-2.608447255 3.012661571 0.851761511
-2.589085375 2.777723535 0.629039274
-2.596914172 2.593658607 0.435186925
-2.584528315 3.221068701 0.304648891
-2.750073881 3.185548594 0.116081097
-3.270512498 3.523195758 -0.087770661
-3.955776448 3.967124285 -0.361599919
-2.608340811 2.610877076 0.858137675
-2.609418992 3.270031718 0.776434403
-2.589583737 3.012353267 0.547616923
-2.580080279 2.790122573 0.346782492
-3.239541974 3.261991906 0.207797622
-2.983686171 3.747226513 0.003260449
-2.610464724 2.833854396 0.784452725
-2.597148643 2.623172636 0.575743164
-2.593940866 3.270817921 0.461758416
-2.582454764 3.025550285 0.25528189
-2.911528835 3.172884575 0.077798093
-3.395517971 3.445020788 -0.13494396
-2.58726958 3.045240313 0.701282737
-2.583827778 2.826718891 0.490730126
-2.585940273 2.633255413 0.301807963
-3.457422115 4.393979679 0.207851511
-2.897328618 3.420695668 -0.04021642
-2.590512835 2.64480779 0.717408557
-2.595877401 3.314835681 0.621949832
-2.593827738 3.076037925 0.404949849
-2.760016521 3.042506624 0.224631144
-3.241508908 3.325316882 0.040282881
-2.589428267 3.085956966 0.70698702
-2.592358199 2.871231943 0.495687025
-2.592634933 2.672680687 0.304497593
-3.448176483 4.437995517 0.208928835
-2.893608158 3.459117563 -0.040458634
-2.612827881 2.907217563 0.795824458
-2.590163173 2.681138669 0.581445123
-2.593127572 3.353511882 0.468904685
-2.573227001 3.090758467 0.258099849
-2.85370008 3.187516752 0.077292325
-3.215790596 3.343773525 -0.129422394
-2.608687324 3.395475906 0.794682007
-2.595618168 3.134279714 0.561000073
-2.591228098 2.907771909 0.355415717
-3.073261832 3.210655031 0.200889086
-2.885003729 3.763417019 0.003227777
-2.610492529 2.942265449 0.651592539
-2.595518497 2.722736613 0.446019503
-2.586356095 3.390571861 0.314580694
-2.64886225 3.225043011 0.115116053
-3.259859954 3.689310136 -0.089888258
-2.598319221 2.735483468 0.731106122
-2.590166473 3.414161916 0.633056084
-2.587266486 3.165538688 0.411458677
-2.683346294 3.050746204 0.222174062
-3.196302344 3.381187868 0.040360948
-2.606419731 3.204783818 0.724964199
-2.60289108 2.973350118 0.506363351
-2.575234728 2.737543137 0.307350211
-3.457216798 4.593362762 0.213721123
-2.806830559 3.46192899 -0.039983176
-2.59689506 2.980198859 0.80480217
-2.597369288 2.772470502 0.592540825
-2.610503078 3.485174397 0.481658023
-2.567502012 3.18190105 0.262390847
-2.776288022 3.198447547 0.076515609
-3.273205465 3.509672643 -0.133884264
-2.609711488 3.506869573 0.811287265
-2.595600734 3.233986317 0.571651961
-2.579524868 2.985608676 0.360050396
-2.982873906 3.21348864 0.198179861
-2.783417643 3.748617994 0.003178087
-2.601724508 3.024593505 0.66090797
-2.600634807 2.813273845 0.454261693
-2.577897006 3.489201932 0.320024774
-3.123254837 3.923828858 0.138332278
-2.890012113 3.373648091 -0.08110754
-2.615914134 2.840006356 0.748228033
-2.607196031 3.548358699 0.650446097
-2.619950419 3.307807451 0.424676632
-2.60902368 3.059636909 0.219880803
-3.254877409 3.550706452 0.041783513
-2.599021449 3.297763981 0.736891385
-2.592275454 3.054520712 0.513353784
-2.581973241 2.830475669 0.313299977
-3.446391121 4.728224146 0.217510384
-2.872486193 3.395133885 -0.081198817
-2.61891998 2.878514998 0.754125556
-2.604542776 3.590715241 0.655268589
-2.643738689 3.380249848 0.431886411
-2.610783615 3.100027624 0.221628054
-2.691479125 3.719302621 0.003124994
-2.604996299 3.104661699 0.671367453
-2.611806822 2.895857793 0.462386104
-3.407976021 4.736303027 0.216915992
-2.623519569 2.919357092 0.760593852
-2.598011585 3.628345842 0.65921418
-2.647882111 3.428694594 0.435991978
-2.659306768 3.722727847 0.003114103
-2.615299472 3.676672749 0.837381343
-2.588905148 3.371478201 0.58599105
-2.574477625 3.622227733 0.327823088
-3.048564435 3.429809298 0.039805801
-2.603905802 3.162014772 0.678558336
-2.614007609 2.952488272 0.46756691
-2.994916672 4.244100255 0.193103146
-2.859378186 3.486728873 -0.082330634
-2.604556676 3.432927803 0.756251392
-2.600040576 3.702706531 0.500458163
-2.806470857 3.70913323 0.128295809
-2.606099967 3.73606933 0.845410268
-2.589357363 3.437098226 0.593228901
-2.568972642 3.685859545 0.331427977
-2.747190518 3.655624478 -0.041023798
-2.61178771 3.486683115 0.764548595
-2.597654927 3.747999065 0.50441609
-2.734004584 3.659814453 0.126007274
-2.617538386 3.022814923 0.77486213
-2.596986614 3.77169816 0.676458101
-2.507037937 3.373860856 0.269755955
-2.71815425 3.663578452 -0.040925119
-2.604631575 3.034434954 0.474160645
-2.645984942 3.874450623 0.174416942
-2.615531765 3.058217197 0.77980848
-2.592143396 3.814563407 0.681280535
-2.666540976 3.633825979 0.45361591
-2.985794803 3.777739794 0.086992251
-2.595247383 3.293137971 0.694574402
-2.5975223 3.063994105 0.476280066
-2.683032365 3.413221062 0.237407921
-2.608431244 3.329040989 0.861062518
-2.607919198 3.092174293 0.630913461
-2.597984569 3.874081831 0.515960078
-2.597147876 3.586229476 0.284166004
-2.971786153 3.807812237 0.087263199
-2.927033098 3.48644024 -0.126996246
-2.595425644 3.60364424 0.612211132
-2.597532294 3.344102411 0.38640441
-2.688311185 3.217433452 0.18951035
-2.607363652 3.125515115 0.788749895
-2.601914625 3.931884184 0.696478585
-2.598018786 3.633092449 0.449510342
-2.683192462 4.061326744 0.180955258
-2.593110022 3.374804242 0.705033885
-2.595797242 3.139261197 0.482991579
-2.673461165 4.073716695 0.181141015
-2.610041333 3.692584809 0.793588635
-2.600343082 3.40949393 0.549449998
-2.587107386 3.96590006 0.349305198
-2.626905731 4.032905294 0.003276105
-2.604926815 3.709441489 0.795490082
-2.598857045 3.429313736 0.551356454
-2.587504575 3.171785271 0.334735446
-2.66851176 4.121080284 0.182515544
-2.598531603 3.198704153 0.642779673
-2.605903344 4.044907589 0.53223155
-2.576896459 3.699757163 0.289353634
-2.802705266 3.73076734 0.08430084
-2.604730837 3.477436354 0.719742522
-2.600090817 3.224216784 0.49111599
-2.569508655 3.713390062 0.28980195
-2.765528602 3.704895397 0.083524125
-2.90408661 3.613944697 -0.129338724
-2.598867273 3.776881285 0.632012749
-2.616577219 3.522220803 0.400399284
-3.386468209 5.336876093 0.234970641
-2.612095542 3.276566406 0.653567159
-2.598277435 4.115786868 0.538388352
-2.486386513 3.370970329 0.229053869
-2.992703956 3.766656542 0.041731467
-2.608064105 3.837757898 0.814331527
-2.593486763 3.533544125 0.561651487
-2.584611631 4.126100891 0.359163449
-2.616581477 3.861153327 0.128654257
-2.615509959 3.317345584 0.81861814
-2.60166704 4.177725985 0.72702078
-2.593502071 3.846984296 0.466934001
-2.612008093 3.587153387 0.242649673
-2.643648851 4.255726461 0.003410199
-2.609589084 3.597639048 0.736248896
-2.598020656 3.324754157 0.500300113
-2.578641846 4.17327255 0.361885503
-2.643408129 3.952750644 0.131163374
-2.619832558 3.365092165 0.826418122
-2.604462241 4.239972586 0.73505817
-2.601262215 3.910044265 0.472641743
-2.598690747 3.615274762 0.243468701
-2.981775348 3.848947067 0.042234572
-2.606419 3.64005378 0.741642044
-2.586670952 3.352425942 0.502066317
-2.577899013 4.229893235 0.365416811
-2.636172673 3.994760158 0.13201812
-2.620675269 3.409124028 0.833266933
-2.610691208 4.309177664 0.744264644
-2.597424493 3.956706672 0.476346796
-2.580503421 3.636852307 0.243850915
-2.9483817 3.854462467 0.042095782
-2.609682468 3.99644662 0.837667282
-2.601232179 3.684400547 0.577920216
-2.562912865 3.367526321 0.346064442
-3.238009334 5.39096353 0.233781856
-2.678751137 4.115856135 -0.044055954
-2.604300344 3.436543281 0.672522272
-2.599977697 4.351519665 0.560706656
-2.579145662 3.983125908 0.304532195
-2.687266507 3.840412967 0.084680164
-2.600838034 4.039735445 0.662329698
-2.592093221 3.722597477 0.413939819
-3.29053348 4.383854003 0.247758706
-2.624483064 4.434578585 0.003507536
-2.605351008 3.759068405 0.75765811
-2.608660862 3.490342233 0.516666714
-2.582524059 4.387543784 0.3755693
-2.653630514 4.15860006 0.13607131
-2.609228102 4.459718422 0.763262193
-2.591345412 4.082608397 0.486660813
-2.586025827 3.765726148 0.249802498
-2.778187764 3.749789721 0.040482389
-2.600368423 3.805765165 0.590630132
-2.573049857 3.490681567 0.354622327
-2.947881669 5.082979124 0.218439114
-2.672283663 4.247022121 -0.045015834
-2.608013391 4.521060568 0.771007339
-2.596344374 4.146499718 0.492368555
-2.575755516 3.800533752 0.251058338
-2.750404542 3.760308871 0.040412994
-2.609808435 3.86598354 0.77269362
-2.612407928 3.586304711 0.526086392
-2.58049381 4.509793628 0.383294061
-2.660932425 4.285113642 0.139131875
-2.604424204 3.888047367 0.599654157
-2.593370105 3.586906604 0.361957633
-2.87877294 5.070789263 0.216767383
-2.657744189 4.311444939 -0.045437466
-2.605218028 4.244088267 0.68650129
-2.603637429 3.915892555 0.429116086
-3.172921856 4.421849778 0.245997688
-2.822587117 5.011835238 0.003915262
-2.607485832 4.651096491 0.787666718
-2.598064747 4.264719384 0.502582407
-2.595473708 3.932694452 0.257665126
-2.684319276 3.766091582 0.04011807
-2.609264479 3.671867463 0.702573145
-2.60352096 4.677610009 0.592150194
-2.585380725 4.274698985 0.320607389
-2.648180494 4.043151247 0.087317387
-2.613307931 4.00220888 0.791814849
-2.606880779 3.696558948 0.536330226
-2.59005493 4.692033678 0.395359352
-3.451109867 5.752661957 0.185040445
-2.777515827 4.272722407 -0.093046395
-2.597330969 4.009121014 0.612109918
-2.567191229 3.667908649 0.366114341
-3.449816465 5.790703536 0.185922772
-2.607025879 4.051269005 0.617320973
-2.602680191 4.784053188 0.401759849
-3.444250133 5.821908481 0.186584503
-2.606070417 4.426200114 0.70807823
-2.6592279 4.163745138 0.450835422
-3.102379156 5.748794621 0.242846337
-2.60178909 4.09817257 0.622023661
-2.599193433 4.848275178 0.40580614
-3.44926151 5.912871214 0.188817904
-2.622821728 4.923419475 0.82405428
-2.605740642 4.491654223 0.522609627
-2.975166327 4.368751459 0.238908564
-2.609748852 4.527240083 0.720368886
-2.681017032 4.28428206 0.461195277
-3.156626282 5.980368046 0.251390737
-2.609015571 4.194378262 0.632954199
-2.613737707 4.985047544 0.415222958
-2.872205154 5.029448455 0.159756259
-2.608231381 4.217003149 0.821395562
-2.608150983 3.89807874 0.556111457
-2.561466862 4.511942199 0.332968022
-3.460991551 6.661573361 0.005109852
-2.607063637 3.917986021 0.7340109
-2.619049102 5.065167108 0.630740027
-2.545797047 4.15596558 0.266510604
-2.791182113 4.960399005 -0.051062204
-2.596316096 4.637883339 0.534926331
-2.538743205 4.173140247 0.267111211
-2.78619238 4.987271182 -0.051250592
-2.600925736 4.679744503 0.538831627
-2.542451108 4.208257599 0.268858461
-3.452063887 6.796569304 0.005188811
-2.616772943 4.012160036 0.747109974
-2.609534667 5.162683657 0.63986526
-2.584471298 4.685469277 0.343407298
-3.457936987 5.76891977 0.121510977
-2.597956876 4.353269643 0.649604161
-2.597634039 4.018555087 0.391298944
-2.969314989 5.930611042 0.246561301
-3.462027973 6.333221134 -0.064751755
-2.609079831 4.797886231 0.549646294
-2.57682858 4.355227135 0.276721089
-2.632306725 4.105398877 0.042303963
-3.604076341 7.268246263 -0.291809936
-2.615919539 4.092686041 0.757589246
-2.627936639 5.320154678 0.656356614
-2.576308982 4.774046612 0.348146583
-3.460368498 5.89535131 0.123497935
-2.606362576 4.110190229 0.577070119
-2.588982015 4.832949309 0.351861174
-2.633795175 4.163727594 0.042737672
-3.561603631 7.294713765 -0.291989645
-2.611838325 4.142091059 0.763753558
-2.594373547 4.474826199 0.472009525
-2.788961274 4.438081823 0.236921792
-3.443591045 6.487400345 -0.065891053
-2.612085433 4.533556429 0.670448441
-2.597481413 4.15681936 0.400834882
-3.46395709 6.571056254 0.204892785
-2.841124881 4.948434696 -0.104182025
-2.61087187 4.202328266 0.586607517
-2.623396252 5.485435805 0.448549674
-3.470196793 6.632137867 0.206464426
-2.825434815 4.956259037 -0.104163771
-2.607875103 4.226375396 0.588844659
-2.61852509 5.518686648 0.45060961
-3.457204872 6.656946778 0.206905589
-2.807260893 4.959683395 -0.10405424
-2.601641832 4.245363519 0.590375365
-2.628340874 5.583540194 0.455244438
-3.455085018 6.703063452 0.208008499
-2.793011319 4.970015968 -0.104090748
-2.604609629 4.279622592 0.594025437
-2.618794091 5.607842398 0.456568674
-3.464551282 6.772367113 0.209828303
-2.77434025 4.972449533 -0.103962963
-2.605850334 4.311389484 0.597322347
-2.609961023 5.633948795 0.458040074
-3.465026705 6.824856369 0.211124212
-2.764885697 4.991432967 -0.104182025
-2.60998688 4.348312663 0.601325692
-2.610570393 5.680895687 0.461203531
-3.458015479 6.863129026 0.211978973
-2.607820119 4.375065631 0.603916052
-2.603056951 5.710657218 0.46296917
-3.435155288 6.870129105 0.211868689
-2.611889836 4.801929739 0.700443881
-2.606789359 4.40891587 0.418847196
-2.853903654 6.317498581 0.257706147
-3.459097055 6.975067517 -0.069847208
-2.615524825 4.843959067 0.705400724
-2.609903218 4.445255497 0.421536797
-2.840228929 6.33899216 0.258226228
-3.461523554 7.034095933 -0.070331637
-2.617989127 4.884306871 0.710103411
-2.611814494 4.479933604 0.424063408
-2.825231789 6.357720897 0.258634877
-3.453967611 7.073436534 -0.070618708
-2.620696091 4.925590984 0.714933175
-2.612538909 4.512939709 0.42642703
-2.806116308 6.367273237 0.25867204
-3.450126613 7.120895602 -0.070986513
-2.617175103 4.547962095 0.622166577
-2.613473734 5.974684162 0.481067137
-2.582383893 5.368974647 0.164333329
-3.439700551 6.537034215 -0.134868903
-2.611454272 4.9861402 0.513630704
-2.58345736 4.53204537 0.235792955
-3.449165264 7.966365504 0.005908969
-2.611771458 4.598074638 0.824779833
-2.626533272 6.098980156 0.734525722
-2.576155665 5.433889345 0.385932918
-3.455471175 6.659681604 0.135546075
-2.61330337 5.060493569 0.729803818
-2.613163608 4.644551931 0.435799949
-2.745005844 6.441679359 0.260306609
-3.454692661 7.359122111 -0.072933193
-2.619273398 5.611519406 0.623246229
-2.603715461 5.089064167 0.312594382
-2.845175399 5.100949918 0.050665872
-3.4718842 8.235285413 -0.321465423
-2.612180468 4.704779471 0.638062241
-2.616379899 6.240321687 0.499165103
-3.456833539 7.478584065 0.227254257
-3.846565306 7.590580735 -0.155369414
-2.612246263 5.179438144 0.529352204
-2.590652151 4.711198297 0.243017559
-3.418912941 8.240939192 0.006073012
-2.61520249 4.779085346 0.645951154
-2.617556741 6.352153421 0.506816254
-3.426192882 7.533321548 0.22827445
-3.791435119 7.597042323 -0.155022559
-2.605938591 5.76654909 0.636864757
-2.582347323 5.203815221 0.317672341
-3.451637277 6.370774098 0.062853089
-3.435012052 8.435541358 -0.327612182
-2.614581786 4.848359309 0.653133634
-2.604545556 5.813081475 0.408796842
-3.448914427 7.011368432 0.141163709
-3.820937534 7.114767841 -0.225297016
-2.62526432 5.363110408 0.765137393
-2.627961378 4.914932263 0.45576834
-2.614597834 6.520473522 0.261161041
-3.571129132 8.052284159 -0.079024415
-2.606834699 5.37210562 0.544892028
-2.60048617 6.543322812 0.261755448
-3.657925553 8.316750497 -0.081509341
-2.607189616 5.415071862 0.54843618
-2.604569941 6.61263595 0.264207315
-3.635591203 8.335265523 -0.081581112
-2.614935898 6.031322194 0.661598301
-2.564727521 4.910964874 0.250422766
-3.321805438 8.519290222 0.006224123
-3.550769698 8.219670159 -0.405494538
-2.552785874 5.391248291 0.326190172
-3.445128332 6.648083355 0.064952245
-3.289953094 8.525310249 -0.328690549
-2.617872342 5.562497821 0.787761051
-2.644456578 5.133642154 0.472232067
-2.615485864 6.823884387 0.271674376
-3.666336008 8.621431117 -0.084048103
-2.617031717 6.191688383 0.676518595
-2.573644366 5.52265772 0.333179204
-3.455644928 6.769739395 0.065932421
-3.224126302 8.509824035 -0.327324619
-2.618943092 5.155421929 0.685631338
-2.607416678 6.923169765 0.545734213
-3.408737355 8.149460651 0.243660018
-3.76267212 8.156449185 -0.164004085
-2.613006791 5.69293935 0.571609513
-2.585589341 5.141612595 0.260130842
-3.167705295 8.507390066 0.006179198
-2.617622241 6.358100342 0.441267486
-3.431156543 7.551709958 0.149852099
-3.822413489 7.673313279 -0.239156735
-2.618036939 5.791806013 0.814451892
-2.617203306 5.278074441 0.481768005
-2.589119532 7.078115733 0.280181599
-3.61776669 8.883176471 -0.086048607
-2.616929714 6.466291165 0.702053225
-2.58773313 5.782960897 0.346447407
-3.443988129 7.0104264 0.067753999
-2.624162911 5.368064859 0.708473982
-2.632399095 7.32839526 0.574426101
-3.365812784 8.406806255 0.249781162
-3.563434449 8.04682083 -0.160681648
-2.613705533 5.395222827 0.490244352
-3.453563062 8.703268694 0.258273543
-3.55060583 7.352383095 -0.227778939
-2.61048368 6.627777478 0.457150544
-3.459963084 7.93614942 0.156409042
-3.530191894 7.36774908 -0.227918369
-2.566150292 5.928825485 0.353272586
-3.444963298 7.235439752 0.069514861
-2.561732138 5.968785191 0.355183659
-3.442822526 7.288470467 0.069922542
-2.551227952 5.994991825 0.356275677
-3.45142097 7.365098269 0.07055576
-2.609255323 5.596363175 0.732140782
-2.60483674 7.693944771 0.599218831
-3.350842578 8.837472283 0.260699958
-3.458553184 8.215177999 -0.16274449
-2.59944743 6.207758875 0.614139453
-2.591953501 7.74199947 0.303511482
-3.192601376 8.504099254 -0.081491399
-2.608300172 6.997312398 0.479245955
-3.467120501 8.369827652 0.163670437
-3.500701321 7.665162924 -0.235085261
-2.619661283 7.094217145 0.48533019
-3.44104611 8.379499856 0.163652362
-2.614383772 7.144236012 0.765639579
-2.58469251 5.741617635 0.284604182
-3.098083723 8.488973467 -0.081069771
-2.619466689 5.858643117 0.524801932
-2.5621505 7.976830688 0.31146149
-3.444635912 8.546392973 -0.168239278
-2.608033432 6.5066504 0.639675574
-2.577727443 5.821309464 0.287764927
-2.736468011 8.621120992 0.006156736
-2.618959396 7.369375884 0.501917745
-3.45069674 8.705517114 0.169179695
-3.538806273 8.074102222 -0.245933217
-2.621748199 6.003622036 0.776766302
-2.573331604 6.542617597 0.384450136
-2.740481797 8.82110444 0.006287426
-2.607041478 6.681600329 0.654488341
-2.592504549 8.425056106 0.327695828
-2.950758146 8.487327685 -0.080612253
-2.600895951 6.726721054 0.65812339
-2.580611143 8.478859439 0.329478991
-2.921776232 8.487830504 -0.080531519
-2.565471747 6.70310822 0.392476587
-3.45265907 8.134238988 0.07665371
-2.556578269 6.741757267 0.394278435
-3.433505438 8.158617906 0.076783819
-2.546067142 6.776675905 0.395861863
-3.443498549 8.253093187 0.077573171
-2.601677784 7.851144386 0.530801858
-3.43540768 9.2415129 0.178120972
-3.412295987 8.26372594 -0.249419046
-2.925814118 8.936665217 0.259376467
-3.123906989 8.493203993 -0.165227187
-2.607862501 6.404306494 0.565472209
-2.881102737 10.13205681 0.391592991
-2.75149534 8.498314157 -0.080136802
-2.604037867 7.190205496 0.697836177
-2.591574163 6.430329925 0.313367118
-2.710717536 9.658830014 0.006828565
-2.607862503 7.278348669 0.422780483
-3.424043502 8.574252632 0.080088681
-2.595462125 6.555713161 0.318695267
-2.747339814 10.0253729 0.007075652
-2.606159782 7.408329248 0.716647462
-2.758380354 10.17340128 0.391853017
-2.727599235 8.791212102 -0.082576875
-2.615195907 7.507512543 0.725462453
-2.729999822 10.19243426 0.392261666
-2.735528157 8.913297405 -0.083644409
-2.608386244 7.562572563 0.730006234
-2.583862155 6.706099828 0.324836184
-2.750729803 10.41279625 0.007330906
-2.612835338 6.833066938 0.598236703
-2.928807218 9.748679267 0.280772866
-2.88812743 8.489691795 -0.163730261
-2.592500969 6.853573286 0.331202855
-2.740671725 10.63864957 0.007477932
-3.344492793 10.01983898 0.190837445
-3.175991269 8.493063653 -0.252960664
-2.607848593 7.012832055 0.611847781
-2.924827106 10.07088864 0.289265276
-2.803602473 8.496924607 -0.163365153
-2.618706216 7.108712142 0.619509124
-2.89501971 10.08365756 0.289375574
-2.773796482 8.494080299 -0.163146091
-2.622850215 7.187870396 0.625703417
-3.260134375 10.07492994 0.191307085
-3.088809917 8.497509097 -0.252235604
-2.60166407 8.113344189 0.465915768
-2.707275434 9.66041618 -0.090004761
-2.597507145 7.256377159 0.630267643
-3.184665336 10.05185268 0.190494241
-2.602711449 7.354049273 0.35260575
-2.599432673 8.370573958 0.479293166
-2.707498276 10.0150598 -0.093072798
-2.619622745 7.536041672 0.652436577
-3.079701607 10.04058998 0.189735593
-2.581114184 8.495280256 0.485517769
-2.755406468 10.44627986 -0.096921299
-2.595915705 7.631332314 0.364345719
-2.95047465 9.944858178 0.187405439
-2.840578186 9.668295046 0.551039724
-2.692125548 10.60107002 -0.098123398
-2.914184647 10.04823874 0.189013066
-2.744901375 11.08382774 0.314963043
-2.847840925 10.04957682 0.188705997
-2.592906391 8.094474172 0.695063018
-2.579997731 8.154875372 0.386606534
-2.811330169 8.985097431 0.081667384
-2.783848376 10.28705522 0.582763283
-2.685876664 10.06406324 0.188182162
-2.785316332 9.198173159 0.083367525
-2.715254428 10.43062231 0.19472103
-2.823372702 9.534373058 0.086256025
-2.802909163 9.683109844 0.087444385
-2.796797944 11.31146862 0.210508244
-2.910928794 10.28820443 0.483280738
-2.806000347 10.03882264 0.090419626
-2.805327798 10.27504725 0.481429418
-2.708280371 10.04491351 0.090246146
-2.739913412 10.5475281 0.094531184
-2.836343869 11.05323693 0.515791466
-2.701343034 10.66291129 0.497188082
-2.779133315 11.26480772 0.100646486
-2.593604811 6.635597782 0.650450497
-2.491931911 4.184239793 0.439941972
-2.778121733 6.468744305 0.382601697
-2.755867687 9.877477885 0.196542932
-3.494614712 7.439630322 0.147218381
